# .PCD v0.7 - Point Cloud Data file format
VERSION 0.7
FIELDS x y z rgba
SIZE 4 4 4 4
TYPE F F F U
COUNT 1 1 1 1
WIDTH 1128
HEIGHT 1
VIEWPOINT 0 0 0 1 0 0 0
POINTS 1128
DATA ascii
0.59797311 0.65287459 1.9630001 4289703857
0.59856594 0.64822769 1.9650002 4289769395
0.59946424 0.64389855 1.9680001 4289638064
0.60005891 0.63922995 1.9700001 4289769650
0.600959 0.63487357 1.973 4289769650
0.60155541 0.63018304 1.9750001 4289703857
0.60215265 0.62548286 1.9770001 4289638578
0.60214162 0.62014568 1.9770001 4289704371
0.60243583 0.61512047 1.978 4289638578
0.60242647 0.60978258 1.978 4289900981
0.60363609 0.60566795 1.9820001 4289769395
0.60423738 0.60092705 1.9840001 4289769395
0.60575312 0.59707683 1.9890001 4289770164
0.60605133 0.59201044 1.9900001 4289704371
0.6069594 0.58752912 1.9930001 4289835443
0.60756356 0.58274025 1.9950001 4289900981
0.60786384 0.57765192 1.9960001 4289900981
0.60816497 0.57255906 1.9970001 4289769395
0.60938025 0.56831342 2.0010002 4289900981
0.61029166 0.5637657 2.0040002 4290098360
0.61089921 0.55892372 2.006 4290032053
0.61120284 0.55379564 2.0070002 4289835188
0.61211604 0.54920906 2.01 4289966774
0.61272544 0.54433644 2.0120001 4289966774
0.61363977 0.53972143 2.0150001 4289835957
0.61425036 0.53482556 2.0170002 4289967543
0.61455679 0.52965689 2.0180001 4289835957
0.61486375 0.5244832 2.0190001 4289901750
0.61517131 0.51930445 2.02 4289967543
0.61578387 0.51437521 2.0220001 4290164406
0.61700594 0.50993884 2.026 4290032822
0.61731505 0.50473434 2.0270002 4290032822
0.61853808 0.50026363 2.0310001 4290098615
0.61915249 0.49528435 2.033 4290098360
0.62007195 0.4905355 2.036 4290164153
0.62007803 0.48505601 2.036 4289835702
0.62038922 0.47981226 2.0370002 4289901495
0.62130988 0.47502905 2.0400002 4290033081
0.62253547 0.47045997 2.0440001 4289901495
0.62345684 0.46564201 2.0470002 4290032567
0.62346488 0.46013367 2.0470002 4290164153
0.62408221 0.45506954 2.049 4290164153
0.62470013 0.44999477 2.0510001 4290098360
0.62592739 0.44534278 2.0550001 4290098360
0.62654585 0.44024122 2.0570002 4290098360
0.62716448 0.43512887 2.059 4290098360
0.62747896 0.42979723 2.0600002 4290295994
0.62809807 0.42466596 2.062 4290098615
0.62902218 0.4197273 2.0650001 4290098360
0.62933719 0.41437122 2.066 4290229946
0.63026178 0.40940559 2.069 4290164408
0.63088191 0.40422848 2.0710001 4290295994
0.63211149 0.39942548 2.075 4290164922
0.63273203 0.39422131 2.0770001 4290164922
0.63304806 0.38881913 2.0780001 4290296508
0.6333642 0.38341141 2.079 4290230715
0.63368058 0.3779982 2.0800002 4290296508
0.6343016 0.37275857 2.082 4290164153
0.63522744 0.36768427 2.085 4290295739
0.63615346 0.36259368 2.0880001 4290099129
0.63738424 0.35765776 2.092 4290230715
0.6373964 0.35202703 2.092 4290099129
0.63832271 0.34689289 2.095 4290230460
0.63924903 0.34174237 2.098 4290427325
0.6401754 0.33657545 2.1010001 4290295994
0.6407972 0.33123478 2.1030002 4290427580
0.64202839 0.32619268 2.1070001 4290361787
0.64265019 0.32082456 2.1090002 4290427327
0.64296734 0.31529608 2.1100001 4290295741
0.64328438 0.30976191 2.1110001 4290361534
0.64390618 0.3043662 2.1130002 4290361534
0.64452797 0.29895946 2.115 4290427325
0.64545441 0.2936804 2.118 4290427325
0.64607608 0.28824896 2.1200001 4290295739
0.64761204 0.28320631 2.125 4290361532
0.64823365 0.27774474 2.1270001 4290361532
0.64885521 0.27227217 2.1290002 4290296253
0.64886707 0.26653814 2.1290002 4290296253
0.64979321 0.2611714 2.1320002 4290295739
0.65041435 0.25566837 2.1340001 4290558911
0.65134031 0.25027147 2.1370001 4290361534
0.65196133 0.24474372 2.1390002 4290427327
0.6531918 0.2394284 2.1430001 4290493120
0.65320301 0.23365512 2.1430001 4290493120
0.65382361 0.22809429 2.1450002 4290624706
0.65413922 0.22241874 2.1460001 4290427327
0.65536916 0.21704046 2.1500001 4290558913
0.65629417 0.21154208 2.1530001 4290558143
0.65691411 0.20593175 2.1550002 4290689729
0.65753376 0.20031035 2.1570001 4290493120
0.65815341 0.19467796 2.1590002 4290362048
0.6590777 0.18912207 2.1620002 4290427841
0.65969682 0.18346493 2.164 4290559427
0.66031575 0.17779681 2.1660001 4290493120
0.66154426 0.17227647 2.1700001 4290362048
0.66246766 0.16665763 2.1730001 4290558913
0.66369569 0.16109641 2.177 4290427327
0.66339904 0.1551569 2.1760001 4290361534
0.66401696 0.1494284 2.1780002 4290624706
0.66493928 0.14375482 2.181 4290362048
0.66616637 0.1381281 2.1850002 4290427841
0.66647851 0.13229804 2.1860001 4290427841
0.66648555 0.12640461 2.1860001 4290493634
0.66710198 0.12062123 2.1880002 4290427841
0.66771811 0.11482692 2.1900001 4290624706
0.66863906 0.1090714 2.1930001 4290690499
0.66986436 0.10334658 2.197 4290558911
0.67078465 0.097555697 2.2 4290624704
0.67170459 0.091748506 2.2030001 4290493120
0.67140466 0.085769191 2.2020001 4290624706
0.672019 0.079903901 2.204 4290427327
0.67263311 0.074027717 2.2060001 4290558913
0.67355192 0.068171501 2.2090001 4290493120
0.67477518 0.062327161 2.2130001 4290493120
0.67599815 0.056461167 2.217 4290623936
0.67661101 0.050527964 2.2190001 4290623936
0.67752856 0.044603977 2.2220001 4290689983
0.6781407 0.038646363 2.2240002 4290689729
0.6784476 0.032663222 2.2250001 4290689729
0.67875421 0.026674641 2.2260001 4290689983
0.67967033 0.020699201 2.2290001 4290689729
0.6805861 0.014707544 2.2320001 4290493118
0.68150145 0.0086996844 2.2350001 4290624706
0.68211162 0.0026744357 2.237 4290427327
0.68363625 -0.0033661092 2.2420001 4290624706
0.68394083 -0.0094168251 2.243 4290623936
0.68485487 -0.015486712 2.2460001 4290755522
0.68546373 -0.021563163 2.2480001 4290821315
0.68637711 -0.027662663 2.2510002 4290624706
0.6866802 -0.033748321 2.2520001 4290558913
0.68728805 -0.039857015 2.2540002 4290493120
0.68759048 -0.045956053 2.2550001 4290755522
0.68819755 -0.052083496 2.2570002 4290623936
0.68910915 -0.058247413 2.26 4290558143
0.69002044 -0.064427435 2.263 4290624190
0.69062662 -0.070592374 2.2650001 4290624190
0.69123226 -0.076767989 2.2670002 4290690497
0.69214255 -0.08299084 2.2700002 4290493118
0.69274753 -0.089190491 2.2720001 4290427327
0.69335216 -0.095400795 2.2740002 4290493120
0.69365162 -0.10157711 2.2750001 4290427327
0.69456065 -0.10785335 2.2780001 4290558913
0.69485945 -0.11404554 2.279 4290361534
0.69576764 -0.12034843 2.2820001 4290427327
0.69667566 -0.12666734 2.2850001 4290623936
0.6978882 -0.13306037 2.289 4290493120
0.69849062 -0.13935314 2.2910001 4290427327
0.69939762 -0.14572003 2.2940001 4290558911
0.69999939 -0.15203664 2.296 4290493118
0.70090574 -0.15843277 2.299 4290427325
0.70150703 -0.16477326 2.3010001 4290558911
0.70271754 -0.1712729 2.3050001 4290230462
0.70331824 -0.17763989 2.3070002 4290230462
0.70391858 -0.18401745 2.309 4290296255
0.70451868 -0.19040553 2.3110001 4290296253
0.70511842 -0.19680415 2.3130002 4290230460
0.70632774 -0.2033889 2.3170002 4290230460
0.70662206 -0.20972346 2.3180001 4290361532
0.70722109 -0.21615639 2.3200002 4290427325
0.70721018 -0.22240809 2.3200002 4290361532
0.70841837 -0.22905374 2.3240001 4290493118
0.7093215 -0.23561944 2.3270001 4290427325
0.71052921 -0.24230503 2.3310001 4290427325
0.7111271 -0.24879856 2.3330002 4290295739
0.71233433 -0.2555213 2.3370001 4290295739
0.71323651 -0.26215324 2.3400002 4290295739
0.71444333 -0.2689158 2.3440001 4290229946
0.71504039 -0.27546483 2.3460002 4290164153
0.71563727 -0.28202429 2.348 4290295739
0.71562433 -0.28834867 2.348 4290229946
0.71652567 -0.29504931 2.3510001 4290295994
0.71712208 -0.30163753 2.3530002 4290295994
0.71832788 -0.30849808 2.3570001 4290426810
0.7192288 -0.31524634 2.3600001 4290361018
0.71951997 -0.32173789 2.3610001 4290361018
0.72011596 -0.32837352 2.3630002 4290229946
0.72132117 -0.33530292 2.3670001 4290098360
0.72252631 -0.34225366 2.3710001 4290229946
0.7234267 -0.3490786 2.3740001 4290032567
0.72402227 -0.35576969 2.3760002 4289901495
0.72461778 -0.36247131 2.378 4289901495
0.72521317 -0.36918342 2.3800001 4290098360
0.72641802 -0.37622166 2.3840001 4290164153
0.72731817 -0.38312072 2.3870001 4290098360
0.72852284 -0.39019886 2.391 4290032567
0.72881365 -0.3968007 2.3920002 4290098360
0.7297138 -0.40374482 2.3950002 4290098360
0.73000449 -0.41036233 2.3960001 4289901750
0.73120934 -0.4175069 2.4000001 4289967029
0.73241425 -0.42467278 2.404 4290097846
0.73361915 -0.43186006 2.4080002 4290229432
0.73421478 -0.43870458 2.4100001 4290229178
0.73541987 -0.44592917 2.414 4290229432
0.7363205 -0.45298773 2.4170001 4289966774
0.73783046 -0.46044254 2.4220002 4289967029
0.73812193 -0.46715289 2.4230001 4289966774
0.73841369 -0.47386858 2.424 4290164153
0.73901027 -0.48078761 2.4260001 4290032567
0.73960698 -0.48771742 2.4280002 4289900981
0.74111772 -0.49526858 2.4330001 4290032053
0.74262875 -0.50284666 2.4380002 4289900467
0.74353069 -0.51003367 2.4410002 4290032053
0.74382371 -0.51681352 2.4420002 4289900467
0.74442172 -0.52381313 2.444 4290032053
0.74532443 -0.53104043 2.447 4289703602
0.7465322 -0.53850383 2.4510002 4289703857
0.74713099 -0.54554385 2.4530001 4289967029
0.74803483 -0.55281997 2.4560001 4289703857
0.7492435 -0.56033999 2.46 4289769650
0.75075722 -0.56811225 2.4650002 4290032053
0.75166214 -0.57544518 2.4680002 4289900467
0.75226283 -0.58255851 2.47 4289834674
0.75286406 -0.589683 2.4720001 4289900467
0.75346583 -0.59681845 2.4740002 4289703604
0.754677 -0.60445273 2.4780002 4289835190
0.75588876 -0.61210877 2.4820001 4289703602
0.75679648 -0.61953747 2.4850001 4289703602
0.75800931 -0.62723458 2.4890001 4289572271
0.75922257 -0.63495362 2.493 4289638064
0.76013201 -0.64243728 2.4960001 4289703857
0.76043296 -0.64941746 2.4970002 4289638064
0.76134354 -0.65692896 2.5 4289703857
0.76255941 -0.66472262 2.5040002 4289769650
0.76408041 -0.67280644 2.5090001 4289506478
0.76438403 -0.67983449 2.5100002 4289572271
0.76560187 -0.68768913 2.5140002 4289768880
0.76682055 -0.69556606 2.5180001 4289638064
0.76773542 -0.70318627 2.5210001 4289638064
0.76804197 -0.71026009 2.5220001 4289572271
0.76834923 -0.71734011 2.523 4289506478
0.76957124 -0.72528744 2.5270002 4289572016
0.7707938 -0.73325706 2.5310001 4289506223
0.77262658 -0.74183422 2.5370002 4289572016
0.77324194 -0.74926412 2.539 4289572271
0.77416283 -0.75700361 2.5420001 4289769650
0.77478021 -0.76446003 2.5440001 4289440685
0.77600759 -0.77253461 2.5480001 4289506478
0.77723598 -0.7806319 2.552 4289638064
0.77877009 -0.78906065 2.5570002 4289506478
0.78060979 -0.79782873 2.5630002 4289506478
0.78153694 -0.80568874 2.5660002 4289440685
0.78276968 -0.81388301 2.5700002 4289638064
0.78339452 -0.82146144 2.572 4289637294
0.78493428 -0.83001852 2.5770001 4289506478
0.78556156 -0.83762985 2.5790002 4289440685
0.78710371 -0.84623587 2.5840001 4289768880
0.78803802 -0.85421032 2.5870001 4289637294
0.78988749 -0.86320138 2.5930002 4289439915
0.79143375 -0.87189108 2.598 4289440683
0.79267681 -0.88027155 2.6020002 4289440681
0.79361653 -0.88833433 2.605 4289506474
0.79455769 -0.89641547 2.608 4289309095
0.79610986 -0.90520787 2.6130002 4289440681
0.79735863 -0.91368014 2.6170001 4289506474
0.79860908 -0.92217636 2.6210001 4289309095
0.79925162 -0.92998743 2.6230001 4289440681
0.80020046 -0.93816894 2.6260002 4289440681
0.80176038 -0.9470892 2.631 4289309350
0.80271262 -0.95531362 2.6340001 4289243557
0.80366647 -0.96355706 2.6370001 4289374888
0.80462199 -0.97181934 2.6400001 4289178279
0.80679852 -0.98158389 2.6470001 4289244072
0.80836737 -0.99064231 2.6520002 4289178279
0.80932844 -0.99897838 2.6550002 4289178279
0.8112058 -1.0084705 2.661 4289177509
0.8121708 -1.0168535 2.664 4289309095
0.81405228 -1.0264091 2.6700001 4289309095
0.81471622 -1.0344522 2.6720002 4289177509
0.81599206 -1.0432893 2.6760001 4289112486
0.81757492 -1.0525442 2.6810002 4289046693
0.81885505 -1.0614346 2.6850002 4289046692
0.81952721 -1.0695544 2.687 4288980899
0.82020164 -1.0776891 2.6890001 4289046692
0.82148826 -1.0866454 2.6930001 4289046693
0.82277721 -1.0956275 2.697 4289111718
0.82406855 -1.1046356 2.7010002 4288980132
0.82566732 -1.1140815 2.7060001 4289242536
0.82726866 -1.1235591 2.7110002 4289176997
0.82856733 -1.1326513 2.7150002 4289242788
0.82803726 -1.1392503 2.7130001 4289111202
0.82811981 -1.1466883 2.7130001 4288717213
0.82820475 -1.1541313 2.7130001 4288783006
0.82920802 -1.1628634 2.7160001 4288651420
0.82929784 -1.1703242 2.7160001 4288716699
0.82877958 -1.176923 2.7140002 4288848797
0.82673645 -1.1813339 2.707 4289111969
0.82561177 -1.187029 2.7030001 4288586395
0.82448941 -1.1927077 2.6990001 4288783520
0.82336938 -1.1983699 2.6950002 4289309864
0.82133502 -1.2026734 2.6880002 4289112485
0.81930268 -1.2069439 2.6810002 4289309864
0.81788367 -1.2120874 2.6760001 4289572267
0.81646717 -1.2172095 2.6710002 4289507243
0.81505299 -1.2223101 2.6660001 4289507243
0.81455839 -1.2287728 2.664 4289507243
0.81498396 -1.236623 2.6650002 4289573290
0.81418908 -1.2426181 2.6620002 4289507497
0.81309086 -1.2481335 2.6580002 4289638829
0.81138343 -1.2526889 2.6520002 4289638829
0.8109023 -1.2591182 2.6500001 4289770669
0.80950594 -1.2641098 2.6450002 4289704876
0.80811208 -1.2690808 2.6400001 4289573290
0.80672085 -1.274031 2.6350002 4289638829
0.56344581 0.92737186 1.8550001 4289243304
0.56485474 0.92465031 1.8600001 4289374122
0.56535465 0.92042357 1.8620001 4289309099
0.56616014 0.91668278 1.8650001 4289243304
0.56575352 0.91097587 1.8640001 4289243818
0.56625968 0.90673786 1.8660001 4289112746
0.5655542 0.90056139 1.8640001 4289244332
0.56576121 0.89584237 1.8650001 4289243818
0.56536359 0.89016783 1.8640001 4289440683
0.56648463 0.88687778 1.868 4289309097
0.56730413 0.88309836 1.8710001 4289178279
0.56812537 0.87930697 1.8740001 4289243818
0.56803906 0.87410456 1.8740001 4289178025
0.56825787 0.86937034 1.8750001 4289178025
0.5690847 0.86555707 1.8780001 4289112232
0.56991309 0.86173141 1.881 4289178025
0.57074332 0.85789359 1.8840001 4289046953
0.57066643 0.85268569 1.8840001 4289112232
0.57089442 0.84793192 1.8850001 4289244072
0.57172978 0.84407073 1.8880001 4289309097
0.57165843 0.83886409 1.8880001 4289177513
0.57279986 0.83542776 1.8920001 4289309099
0.5730347 0.83065677 1.8930001 4289374892
0.57387656 0.826756 1.8960001 4289374892
0.57411468 0.82197595 1.8970001 4289309611
0.57495975 0.81805509 1.9000001 4289178025
0.57489848 0.81283784 1.9000001 4289441197
0.57514155 0.80804914 1.9010001 4289638064
0.57538611 0.80325818 1.9020001 4289309613
0.5762372 0.79930437 1.9050001 4289441199
0.57678735 0.7949205 1.9070001 4289243820
0.57733899 0.79052871 1.909 4289374892
0.57728726 0.78530639 1.909 4289440685
0.57753938 0.7804957 1.9100001 4289440685
0.57809544 0.77608842 1.9120001 4289506478
0.57895517 0.77207625 1.9150001 4289506478
0.57951385 0.76765007 1.9170001 4289440430
0.58037621 0.76361328 1.9200001 4289440430
0.58063537 0.75877297 1.9210001 4289440685
0.5808959 0.75392973 1.9220001 4289440685
0.58176214 0.74986267 1.9250001 4289506476
0.58262974 0.74578172 1.9280001 4289506478
0.58319622 0.74130279 1.9300001 4289374892
0.583462 0.73643398 1.9310001 4289638064
0.58342677 0.73118335 1.9310001 4289572271
0.58429933 0.7270627 1.9340001 4289638064
0.58456874 0.72218144 1.9350001 4289572271
0.58514136 0.7176674 1.937 4289506478
0.58571523 0.7131446 1.9390001 4289572271
0.58659232 0.70897794 1.9420002 4289506478
0.58686638 0.70407224 1.9430001 4289441197
0.58714151 0.69916302 1.9440001 4289309611
0.58741784 0.69425023 1.9450001 4289572785
0.58860135 0.69039649 1.9490001 4289770164
0.58918184 0.68581975 1.9510001 4289441197
0.58976334 0.68123376 1.9530001 4289638576
0.59004384 0.67629248 1.9540001 4289638830
0.59092939 0.67203426 1.9570001 4289769648
0.59181577 0.66776133 1.96 4289507244
0.59270322 0.66347349 1.9630001 4289638576
0.59268576 0.65816516 1.9630001 4289638062
0.59327316 0.65352339 1.9650002 4289901236
0.59355956 0.64854211 1.9660001 4289835443
0.59475261 0.64453828 1.9700001 4289835443
0.59534264 0.63986522 1.9720001 4289769650
0.59623551 0.63550436 1.9750001 4289769650
0.59652537 0.63049018 1.9760001 4289769650
0.59681618 0.62547177 1.9770001 4289572785
0.59680593 0.62013543 1.9770001 4289638578
0.59740031 0.61542201 1.9790001 4289769909
0.5976935 0.61039054 1.9800001 4289572530
0.59889311 0.60627133 1.9840001 4289900981
0.59948975 0.60152566 1.9860001 4289966774
0.600389 0.5970704 1.9890001 4289769909
0.6006853 0.59200484 1.9900001 4289704371
0.60158592 0.58752418 1.9930001 4289835702
0.60218555 0.58273607 1.9950001 4289900981
0.60278571 0.57793784 1.9970001 4289966774
0.6030848 0.5728429 1.9980001 4289900983
0.60398817 0.56831127 2.0010002 4289900213
0.60489219 0.56376415 2.0040002 4289900467
0.60549504 0.55892277 2.006 4290032569
0.60579664 0.55379528 2.0070002 4289769395
0.60670245 0.54920942 2.01 4289769397
0.60700518 0.54406679 2.0110002 4289966774
0.60791218 0.539455 2.0140002 4289901750
0.60851789 0.53456229 2.016 4290098615
0.60912412 0.52965933 2.0180001 4290032822
0.60973084 0.52474594 2.02 4290098615
0.61063999 0.52007931 2.023 4289967029
0.610946 0.51488805 2.0240002 4289967029
0.6118561 0.51019514 2.0270002 4290098615
0.61186111 0.50473928 2.0270002 4290164408
0.61337578 0.50051528 2.0320001 4290098615
0.61368352 0.49529016 2.033 4289966774
0.61519909 0.4910236 2.0380001 4289967288
0.61490399 0.4853009 2.0370002 4289835702
0.61581671 0.48052597 2.0400002 4289967290
0.616126 0.47526926 2.0410001 4289967288
0.61764318 0.47092798 2.046 4290033081
0.6179533 0.46565011 2.0470002 4290033081
0.61826366 0.46036685 2.0480001 4290098360
0.61887622 0.45530042 2.0500002 4290164153
0.62009299 0.45066208 2.0540001 4290229946
0.62070614 0.4455688 2.056 4290164153
0.62131965 0.44046482 2.0580001 4290032567
0.62193352 0.43535012 2.0600002 4290164153
0.62254751 0.43022457 2.062 4290295994
0.6228599 0.42488235 2.0630002 4290295994
0.62347442 0.41973791 2.0650001 4290164153
0.62408918 0.41458264 2.0670002 4290098360
0.62500608 0.40961447 2.0700002 4290229946
0.62592316 0.40463001 2.0730002 4290164153
0.62653852 0.39943683 2.075 4290098874
0.62745589 0.39442259 2.0780001 4290098874
0.62807167 0.38920501 2.0800002 4290230460
0.62838554 0.38379207 2.0810001 4290230460
0.62869954 0.37837356 2.082 4290098874
0.62901372 0.37294963 2.0830002 4290361532
0.62993187 0.36787274 2.0860002 4290361532
0.63085008 0.36277956 2.089 4290493118
0.63176847 0.35767004 2.092 4290361787
0.63208306 0.35220769 2.0930002 4290098874
0.63330352 0.34723645 2.0970001 4290229946
0.63361812 0.34175479 2.098 4290427325
0.6345368 0.33658794 2.1010001 4290427325
0.63515359 0.33124727 2.1030002 4290361787
0.63637435 0.32620519 2.1070001 4290361532
0.63668901 0.32068494 2.108 4290427327
0.63700378 0.31515917 2.1090002 4290295741
0.63731843 0.30962765 2.1100001 4290229948
0.6385392 0.30452269 2.1140001 4290361534
0.63915586 0.29911324 2.1160002 4290427325
0.64037669 0.29397011 2.1200001 4290361532
0.64129531 0.28866917 2.1230001 4290295739
0.64251596 0.28348511 2.1270001 4290427325
0.64283037 0.27788746 2.128 4290230460
0.6434468 0.27241212 2.1300001 4290230462
0.64345896 0.26667529 2.1300001 4290230460
0.64467931 0.26142824 2.1340001 4290296253
0.64499331 0.25579989 2.135 4290295741
0.6459114 0.25040019 2.138 4290361534
0.64652735 0.2448696 2.1400001 4290361534
0.64774728 0.23955144 2.1440001 4290361534
0.64836293 0.2339934 2.1460001 4290427327
0.64867628 0.22831796 2.1470001 4290427327
0.64898938 0.22263686 2.148 4290558913
0.65020883 0.21725301 2.1520002 4290558913
0.65112603 0.21174911 2.1550002 4290623936
0.65204281 0.2062287 2.158 4290558143
0.65235531 0.2005062 2.1590002 4290493120
0.65296966 0.19486822 2.161 4290559427
0.65358388 0.18921921 2.1630001 4290493634
0.65419787 0.18355916 2.1650002 4290427841
0.65450948 0.17780603 2.1660001 4290624706
0.65602946 0.17236485 2.171 4290558913
0.65664285 0.16666639 2.1730001 4290493120
0.65755802 0.1610309 2.1760001 4290624704
0.65756655 0.15516515 2.1760001 4290558913
0.6584813 0.14950499 2.1790001 4290624706
0.65969801 0.14389437 2.1830001 4290362048
0.66061229 0.13819878 2.1860001 4290690499
0.66092181 0.13236575 2.187 4290493634
0.66123116 0.12652716 2.1880002 4290362048
0.66184229 0.1207381 2.1900001 4290559427
0.66184878 0.11483323 2.1900001 4290558913
0.66306382 0.10912714 2.194 4290624706
0.66458094 0.1034464 2.1990001 4290755522
0.66549325 0.09764982 2.2020001 4290624706
0.66610289 0.091795266 2.204 4290690499
0.66610795 0.085851893 2.204 4290690499
0.66671711 0.079980902 2.2060001 4290624706
0.66702366 0.074065439 2.207 4290427327
0.66823673 0.068237074 2.2110002 4290558913
0.66884482 0.062330686 2.2130001 4290690499
0.66975498 0.056438901 2.2160001 4290558143
0.67096692 0.050553605 2.22 4290755522
0.67248088 0.044666734 2.2250001 4290689729
0.67339003 0.038718071 2.2280002 4290558143
0.67339206 0.032709129 2.2280002 4290689729
0.67339373 0.026700132 2.2280002 4290623936
0.67369735 0.02070038 2.2290001 4290623936
0.67460507 0.014708385 2.2320001 4290427325
0.67551249 0.0087001817 2.2350001 4290427327
0.67672181 0.0026769801 2.2390001 4290690499
0.67793071 -0.0033678031 2.243 4290623936
0.67823267 -0.0094215618 2.2440002 4290623936
0.67913866 -0.015494494 2.2470002 4290755522
0.68004423 -0.021583581 2.25 4290689729
0.68094957 -0.027688818 2.253 4290558913
0.68125004 -0.033780225 2.2540002 4290361534
0.6815502 -0.039876968 2.2550001 4290689729
0.68154776 -0.045958664 2.2550001 4290755522
0.68214947 -0.052086454 2.2570002 4290623936
0.68305296 -0.058250714 2.26 4290689983
0.6842584 -0.064459555 2.2640002 4290689983
0.68455684 -0.07059636 2.2650001 4290624190
0.68515712 -0.07677231 2.2670002 4290493118
0.68605924 -0.082995504 2.2700002 4290493118
0.68665886 -0.089195482 2.2720001 4290558913
0.68725812 -0.095406123 2.2740002 4290427327
0.68815923 -0.10167206 2.2770002 4290361534
0.68875778 -0.10790667 2.279 4290427327
0.68935615 -0.11415193 2.2810001 4290623936
0.68995392 -0.12040779 2.283 4290558913
0.69115609 -0.12678516 2.2870002 4290558143
0.69205552 -0.13312575 2.2900002 4290427327
0.69295478 -0.13948236 2.2930002 4290624190
0.69385344 -0.14585494 2.296 4290492604
0.69414771 -0.15211104 2.2970002 4290361532
0.69474357 -0.15844125 2.299 4290493118
0.69564152 -0.16485362 2.302 4290493118
0.6968413 -0.17135626 2.306 4290230460
0.69743639 -0.17772622 2.3080001 4290164669
0.69772905 -0.18402705 2.309 4290230460
0.69832361 -0.1904154 2.3110001 4290296253
0.69922 -0.19689935 2.3140001 4290296253
0.69981408 -0.20331149 2.3160002 4290230460
0.70070988 -0.20982458 2.319 4290361532
0.70130336 -0.21626043 2.3210001 4290295739
0.70189661 -0.22270679 2.3230002 4290361532
0.70218748 -0.22906511 2.3240001 4290427325
0.70338446 -0.23573226 2.3280001 4290361532
0.70458114 -0.24242075 2.332 4290361532
0.70607984 -0.24923714 2.3370001 4290361532
0.70697409 -0.25586155 2.3400002 4290427325
0.70786798 -0.26250175 2.3430002 4290295739
0.70906383 -0.2692726 2.3470001 4290295994
0.70935315 -0.27571243 2.348 4290295739
0.70964235 -0.28215739 2.3490002 4290164153
0.70932698 -0.28836173 2.348 4290361532
0.71082431 -0.29531354 2.3530002 4290295994
0.71171719 -0.30203551 2.3560002 4290098615
0.71230769 -0.30864248 2.358 4290426811
0.71320027 -0.31539351 2.3610001 4290361018
0.71348864 -0.32188791 2.3620002 4290229432
0.7143808 -0.32866523 2.365 4290229946
0.71497101 -0.33531684 2.3670001 4290295739
0.71616507 -0.34226766 2.3710001 4290164153
0.71675509 -0.34894559 2.3730001 4290164153
0.71734488 -0.35563403 2.375 4290033081
0.71823668 -0.36248541 2.378 4289967288
0.71912855 -0.36935273 2.381 4290229946
0.72032237 -0.37639371 2.3850002 4290164153
0.72121388 -0.38329539 2.388 4290032567
0.7227096 -0.39053947 2.3930001 4289835443
0.72299725 -0.39714661 2.3940001 4289769395
0.72388893 -0.4040961 2.3970001 4290032567
0.72447866 -0.41089019 2.3990002 4289966774
0.72567225 -0.41804281 2.4030001 4290164153
0.72596008 -0.4246867 2.404 4289966774
0.7271539 -0.43187395 2.4080002 4290163385
0.72834778 -0.43908244 2.4120002 4290097592
0.72954172 -0.44631234 2.4160001 4290098360
0.73043376 -0.45337614 2.4190001 4290032567
0.73132592 -0.46045595 2.4220002 4289966774
0.73191613 -0.46735892 2.424 4290032567
0.73250675 -0.47427258 2.4260001 4289966774
0.73309743 -0.48119688 2.4280002 4289966774
0.73368824 -0.48813179 2.4300001 4289835188
0.73488313 -0.49548459 2.434 4289966260
0.73638022 -0.50306511 2.4390001 4290032053
0.73757553 -0.51046342 2.4430001 4290097846
0.73816729 -0.51746011 2.4450002 4289834674
0.73875922 -0.52446747 2.447 4290097846
0.73965341 -0.53170258 2.45 4289900981
0.74084985 -0.53917372 2.4540002 4289901236
0.74174464 -0.54644394 2.457 4289901236
0.74263978 -0.55373037 2.46 4289967029
0.74323338 -0.56080526 2.4620001 4289835188
0.74473292 -0.56858242 2.467 4290032053
0.74562913 -0.57592034 2.47 4289768881
0.74622393 -0.58303869 2.4720001 4289966260
0.7462154 -0.58969098 2.4720001 4289703602
0.74711287 -0.59706712 2.4750001 4289900981
0.74801081 -0.6044597 2.4780002 4289637811
0.74981493 -0.61260855 2.4840002 4289768627
0.75071388 -0.62004215 2.4870002 4289900213
0.75191522 -0.62774402 2.4910002 4289966260
0.75281519 -0.63521326 2.4940002 4289703857
0.75371587 -0.64269906 2.4970002 4289572271
0.75371146 -0.6494211 2.4970002 4289638064
0.7552169 -0.65745747 2.5020001 4289703855
0.75581753 -0.66472501 2.5040002 4289506478
0.75762618 -0.67307639 2.5100002 4289506478
0.75792629 -0.68010634 2.5110002 4289703087
0.75913262 -0.68796295 2.5150001 4289703087
0.76064146 -0.696118 2.5200002 4289834673
0.76154739 -0.7037428 2.523 4289703087
0.76185042 -0.71082133 2.5240002 4289768881
0.76185244 -0.71762162 2.5240002 4289834674
0.76276076 -0.7252838 2.5270002 4289637809
0.76457548 -0.733832 2.5330002 4289506478
0.7660892 -0.74212116 2.5380001 4289506478
0.7670002 -0.74984801 2.5410001 4289506478
0.76761019 -0.75729424 2.5430002 4289441199
0.76882488 -0.76535332 2.5470002 4289375406
0.77034223 -0.77373809 2.552 4289440685
0.77155906 -0.78184521 2.5560002 4289638064
0.77307856 -0.79028368 2.5610001 4289506478
0.77459913 -0.79875022 2.5660002 4289506478
0.77521527 -0.80630332 2.5680001 4289572271
0.77613437 -0.81418514 2.5710001 4289440685
0.77705461 -0.82208461 2.5740001 4289374890
0.77857977 -0.83064592 2.5790002 4289506478
0.77980429 -0.83891094 2.5830002 4289572269
0.78103 -0.84719908 2.5870001 4289505708
0.78225696 -0.85551053 2.5910001 4289505708
0.78378713 -0.86417818 2.5960002 4289637548
0.78531879 -0.87287474 2.6010001 4289506476
0.78624791 -0.88092357 2.6040001 4289506474
0.78657436 -0.88830847 2.605 4289374888
0.78780818 -0.89673191 2.6090002 4289638060
0.78934532 -0.90552539 2.6140001 4289309095
0.7908842 -0.91434813 2.6190002 4289506474
0.79242426 -0.92320007 2.6240001 4289374890
0.79275817 -0.93066323 2.6250002 4289243304
0.79369754 -0.93884861 2.628 4289177511
0.79463851 -0.94705272 2.631 4289177509
0.79648733 -0.95636368 2.6370001 4289440681
0.79712957 -0.96424806 2.6390002 4289309865
0.79777348 -0.97214592 2.641 4289046693
0.79902333 -0.98079914 2.6450002 4289178279
0.80057704 -0.98985028 2.6500001 4289112232
0.80243474 -0.99930775 2.6560001 4289309097
0.8045966 -1.0091799 2.6630001 4289045925
0.80585396 -1.0179482 2.6670001 4289309095
0.80741543 -1.0271256 2.6720002 4289243557
0.80837458 -1.0355593 2.6750002 4289375143
0.80963796 -1.0444026 2.6790001 4289177509
0.81181008 -1.0544487 2.6860001 4289111716
0.81368214 -1.0641413 2.6920002 4289177509
0.81404507 -1.0718802 2.6930001 4288849313
0.81410772 -1.0792276 2.6930001 4289244072
0.81417251 -1.0865787 2.6930001 4289243302
0.81575119 -1.0959649 2.6980002 4289111718
0.81733203 -1.1053823 2.7030001 4289045925
0.81921786 -1.1152431 2.7090001 4289242790
0.82110608 -1.1251409 2.7150002 4289045411
0.82148468 -1.1329901 2.7160001 4289176995
0.82095808 -1.1395899 2.7140002 4289045923
0.82073605 -1.1466056 2.7130001 4288848799
0.82112163 -1.1544715 2.7140002 4288848285
0.82211465 -1.1632038 2.7170002 4288585113
0.82189983 -1.1702342 2.7160001 4288585113
0.82138485 -1.1768306 2.7140002 4288914590
0.81935853 -1.1812391 2.707 4289177762
0.81763721 -1.1860539 2.7010002 4288651420
0.81652343 -1.1917244 2.697 4289177764
0.81601745 -1.1982679 2.6950002 4289178278
0.81460547 -1.2034637 2.6900001 4289244071
0.81289291 -1.2081873 2.684 4289572267
0.81148547 -1.2133368 2.6790001 4289440681
0.81008035 -1.2184647 2.674 4289440936
0.80807143 -1.2226541 2.6670001 4289441704
0.80758005 -1.229117 2.6650002 4289507497
0.80739415 -1.2360389 2.664 4289507497
0.80721116 -1.242962 2.6630001 4289507497
0.80521202 -1.247069 2.6560001 4289638829
0.8035183 -1.2516161 2.6500001 4289769901
0.80243343 -1.2570869 2.6460001 4289835694
0.80226123 -1.2639761 2.6450002 4289573036
0.80087835 -1.268944 2.6400001 4289770669
0.79980153 -1.274375 2.6360002 4289638829
0.55895388 0.928262 1.8570001 4289111718
0.56035095 0.92553681 1.8620001 4289374890
0.56084728 0.92130679 1.8640001 4289177511
0.56134552 0.91707093 1.8660001 4289177511
0.56124437 0.91185224 1.8660001 4288849574
0.56084472 0.90615314 1.8650001 4289046953
0.56044739 0.90046495 1.8640001 4289046953
0.56065357 0.89574808 1.8650001 4289046441
0.56116223 0.89150822 1.8670001 4289045927
0.56197345 0.88773692 1.8700001 4289177511
0.56218547 0.88300997 1.8710001 4289178025
0.56269991 0.87875152 1.8730001 4289243818
0.56291574 0.87402016 1.8740001 4289112232
0.56373429 0.87021518 1.8770001 4289178025
0.56455451 0.86639816 1.8800001 4289178025
0.56537634 0.86256886 1.8830001 4289178025
0.5661999 0.85872722 1.886 4289112232
0.56612462 0.85351568 1.886 4289178025
0.56635135 0.84875822 1.8870001 4289178025
0.56627977 0.84355217 1.8870001 4289506476
0.56681013 0.83923876 1.8890001 4289243304
0.56764215 0.83535969 1.8920001 4289309097
0.56817585 0.83102924 1.8940001 4289374892
0.56871104 0.82669139 1.8960001 4289243820
0.56954777 0.82277954 1.899 4289243818
0.57008612 0.81842422 1.9010001 4289243818
0.57032627 0.81363374 1.9020001 4289112232
0.56996828 0.80799115 1.9010001 4289375404
0.57021153 0.80320179 1.9020001 4289309611
0.57105595 0.79924953 1.9050001 4289375404
0.57160199 0.7948671 1.9070001 4289309611
0.57155007 0.78964877 1.9070001 4289309613
0.5717994 0.78484476 1.9080001 4289440685
0.57234991 0.78044695 1.9100001 4289309099
0.57320142 0.776447 1.9130001 4289440685
0.57375461 0.77203035 1.9150001 4289440685
0.57430917 0.76760548 1.9170001 4289506478
0.5748651 0.76317245 1.9190001 4289572271
0.57542229 0.75873113 1.9210001 4289440685
0.57598084 0.75428158 1.9230001 4289309099
0.57684016 0.75021309 1.9260001 4289572271
0.57770073 0.7461307 1.9290001 4289638062
0.57796353 0.74126619 1.9300001 4289506478
0.57822776 0.73639876 1.9310001 4289638064
0.57849312 0.73152792 1.932 4289638062
0.57935858 0.72740585 1.9350001 4289703857
0.57992572 0.72289634 1.937 4289572271
0.57989532 0.71763712 1.937 4289638064
0.58016551 0.71274769 1.9380001 4289638064
0.5807361 0.70821983 1.9400001 4289638064
0.58190662 0.70440775 1.9440001 4289572783
0.58247942 0.69985664 1.9460001 4289572783
0.58305335 0.69529647 1.9480001 4289638576
0.5836283 0.69072711 1.95 4289572785
0.58390504 0.68579721 1.9510001 4289572269
0.5841828 0.68086356 1.9520001 4289835441
0.58476084 0.67627209 1.9540001 4289704623
0.58593845 0.67235821 1.9580001 4289638060
0.58681774 0.66808355 1.9610001 4289703855
0.5879972 0.66413206 1.9650002 4289572783
0.58827984 0.65915447 1.9660001 4289769648
0.58886272 0.65450549 1.9680001 4289638064
0.58914727 0.64951706 1.9690001 4289703857
0.59003109 0.64517891 1.9720001 4289901236
0.59061664 0.64050132 1.9740001 4289572271
0.59090382 0.63549232 1.9750001 4289769650
0.59149104 0.63079816 1.9770001 4289901236
0.59177995 0.6257779 1.978 4289572785
0.5923689 0.62106699 1.9800001 4289704371
0.5923602 0.61572433 1.9800001 4289704116
0.59295064 0.61099923 1.9820001 4289704116
0.59354198 0.60626429 1.9840001 4289900981
0.59443313 0.60182232 1.9870001 4289637809
0.59502578 0.59706485 1.9890001 4289704116
0.59591848 0.59259492 1.9920001 4289769909
0.59681183 0.58810967 1.9950001 4289900981
0.59740663 0.5833168 1.9970001 4290032567
0.59800214 0.57851392 1.9990001 4289835188
0.59799999 0.57312745 1.9990001 4289835190
0.59889597 0.56859374 2.0020001 4290097592
0.59949344 0.56376326 2.0040002 4289834674
0.59979236 0.55864388 2.0050001 4290031799
0.60039115 0.5537957 2.0070002 4289703602
0.60128945 0.54921031 2.01 4289900981
0.60159022 0.54406834 2.0110002 4289900981
0.60248977 0.53945708 2.0140002 4290032822
0.60309064 0.53456491 2.016 4290032822
0.60399127 0.52992499 2.0190001 4289967029
0.60429406 0.52474958 2.02 4290032822
0.60549492 0.5203405 2.0240002 4290032822
0.60579866 0.51514703 2.0250001 4290032822
0.60700035 0.5107035 2.029 4290164408
0.60730523 0.50549185 2.0300002 4289900981
0.60820866 0.50076753 2.033 4289900981
0.60851425 0.49554017 2.0340002 4289967288
0.60941863 0.4907895 2.0370002 4289967288
0.609725 0.48554632 2.0380001 4290033083
0.610331 0.48053351 2.0400002 4289967290
0.61123645 0.47574285 2.043 4289967288
0.61274076 0.47139663 2.0480001 4289967288
0.61304861 0.46611366 2.049 4290033081
0.61305749 0.4606005 2.049 4290229946
0.61366528 0.45553172 2.0510001 4290229946
0.61487168 0.45089096 2.0550001 4290164153
0.61548001 0.44579539 2.0570002 4290098360
0.61608857 0.44068891 2.059 4290098360
0.61639827 0.43536043 2.0600002 4290295739
0.61730653 0.43044379 2.0630002 4290164153
0.61821502 0.42551094 2.066 4290295739
0.61882472 0.42035869 2.0680001 4290164153
0.61943448 0.41519558 2.0700002 4290229946
0.61974525 0.40982372 2.0710001 4290098874
0.62125325 0.40522721 2.0760002 4290164667
0.62156433 0.39983359 2.0770001 4290164667
0.6221748 0.39462429 2.079 4290164667
0.62248629 0.38921705 2.0800002 4290098874
0.623097 0.38398862 2.082 4290098874
0.62370801 0.37874931 2.0840001 4290230460
0.62401986 0.37332007 2.085 4290230460
0.62463111 0.36806157 2.0870001 4290361532
0.62524229 0.3627921 2.089 4290361532
0.62615299 0.35768268 2.092 4290295994
0.62736309 0.35272524 2.0960002 4290361532
0.62857318 0.34774598 2.1000001 4290361532
0.62858617 0.34209341 2.1000001 4290427325
0.62919766 0.33676094 2.102 4290493118
0.62980932 0.33141759 2.1040001 4290361532
0.63101971 0.32637283 2.108 4290361532
0.63163137 0.32100204 2.1100001 4290295741
0.63194364 0.31547078 2.1110001 4290361534
0.63225591 0.30993387 2.112 4290361534
0.63286757 0.30453542 2.1140001 4290361534
0.63377845 0.29926723 2.1170001 4290427325
0.63498878 0.29412138 2.1210001 4290295739
0.63649845 0.28908965 2.1260002 4290361532
0.63681054 0.2834976 2.1270001 4290361532
0.63712251 0.27789989 2.128 4290230460
0.63743442 0.27229652 2.1290002 4290296255
0.63804549 0.26681265 2.131 4290230462
0.6392554 0.26156282 2.135 4290362048
0.63956702 0.25593168 2.1360002 4290427327
0.6404773 0.25052914 2.1390002 4290361534
0.64108801 0.24499573 2.141 4290427327
0.64199805 0.23956299 2.1440001 4290361534
0.64260852 0.2340048 2.1460001 4290361534
0.64321876 0.22843552 2.148 4290427327
0.64352947 0.22275156 2.1490002 4290493120
0.64473832 0.21736485 2.1530001 4290427327
0.64564753 0.21185802 2.1560001 4290558913
0.64655662 0.20633477 2.1590002 4290493120
0.64746547 0.2007951 2.1620002 4290558913
0.64777523 0.19505863 2.1630001 4290427841
0.64838421 0.18940401 2.1650002 4290362048
0.6486935 0.18365356 2.1660001 4290362048
0.64930207 0.1779796 2.1680002 4290427841
0.65050936 0.17245339 2.1720002 4290427841
0.65081793 0.16667528 2.1730001 4290427839
0.65142578 0.16096556 2.1750002 4290624704
0.65173388 0.15517351 2.1760001 4290624706
0.65294015 0.1495817 2.1800001 4290624706
0.65384674 0.14390221 2.1830001 4290427841
0.65475309 0.13820636 2.1860001 4290624706
0.6556592 0.13249411 2.1890001 4290624706
0.65596581 0.12664981 2.1900001 4290624706
0.65657181 0.12085509 2.1920002 4290558913
0.65657848 0.11494453 2.1920002 4290493120
0.65718377 0.10913327 2.194 4290690497
0.65838802 0.10340517 2.1980002 4290689729
0.65959185 0.097655334 2.2020001 4290558913
0.66049588 0.09184213 2.2050002 4290493120
0.66050088 0.085895725 2.2050002 4290690499
0.66110474 0.080021709 2.207 4290558913
0.6617083 0.074136794 2.2090001 4290624706
0.66261107 0.068271846 2.2120001 4290493120
0.66351354 0.062390603 2.2150002 4290689729
0.66411597 0.056467604 2.217 4290492350
0.66501778 0.050556518 2.22 4290755522
0.66651833 0.044669308 2.2250001 4290623936
0.66711986 0.038702928 2.227 4290361534
0.66772109 0.032725699 2.2290001 4290427327
0.66772282 0.02671366 2.2290001 4290427327
0.66832334 0.020720158 2.2310002 4290427327
0.6689235 0.014715827 2.233 4290427325
0.67012233 0.0087084714 2.237 4290624704
0.67132097 0.0026795263 2.2410002 4290427327
0.67221969 -0.0033694999 2.2440002 4290558913
0.67281842 -0.0094305053 2.2460001 4290493120
0.67371631 -0.015509181 2.2490001 4290493120
0.67431444 -0.021594424 2.2510002 4290558913
0.67521167 -0.027702712 2.2540002 4290427325
0.67550945 -0.033797164 2.2550001 4290493120
0.67580688 -0.039896954 2.256 4290427327
0.67610395 -0.046002083 2.2570002 4290755522
0.67670017 -0.052135602 2.2590001 4290821315
0.67789519 -0.058331385 2.263 4290689729
0.67879027 -0.064520188 2.266 4290558143
0.6793856 -0.070693903 2.2680001 4290689729
0.67968082 -0.076844424 2.2690001 4290493120
0.68057489 -0.08307334 2.2720001 4290558911
0.68086946 -0.089239791 2.273 4290493118
0.68116385 -0.095411517 2.2740002 4290558913
0.68175727 -0.10163314 2.276 4290427327
0.68264991 -0.10791273 2.279 4290493120
0.68354231 -0.11420837 2.2820001 4290492350
0.68443429 -0.12052 2.2850001 4290558143
0.68562549 -0.12690307 2.289 4290623936
0.68621731 -0.13319126 2.2910001 4290623936
0.68680888 -0.13949005 2.2930002 4290558397
0.68769944 -0.14586292 2.296 4290493118
0.68799084 -0.15211931 2.2970002 4290493118
0.68858129 -0.15844983 2.299 4290427325
0.68947101 -0.1648625 2.302 4290427325
0.69065994 -0.17136544 2.306 4290427839
0.69124955 -0.17773567 2.3080001 4290296253
0.69183892 -0.1841165 2.3100002 4290493118
0.69212848 -0.19042541 2.3110001 4290427325
0.69331616 -0.19699474 2.3150001 4290295739
0.69360518 -0.20332204 2.3160002 4290164667
0.69509184 -0.21001638 2.3210001 4290295739
0.69538021 -0.21636467 2.322 4290295739
0.69656688 -0.22300573 2.3260002 4290361532
0.69655538 -0.22927378 2.3260002 4290295739
0.69774139 -0.23594658 2.3300002 4290361532
0.69892734 -0.24264069 2.3340001 4290426811
0.70041233 -0.24946268 2.3390002 4290295739
0.70159769 -0.25620198 2.3430002 4290295739
0.70218384 -0.26273844 2.345 4290295739
0.70306933 -0.26940015 2.348 4290295994
0.70305628 -0.27572545 2.348 4290295739
0.70334256 -0.28217053 2.3490002 4290361018
0.70362866 -0.28862071 2.3500001 4290164153
0.70451337 -0.29532701 2.3530002 4290361018
0.70539784 -0.3020491 2.3560002 4290164153
0.7059828 -0.30865622 2.358 4290361018
0.70746583 -0.3156746 2.3630002 4290229432
0.7077511 -0.32217443 2.3640001 4290229946
0.70863509 -0.32895729 2.3670001 4290295739
0.70892024 -0.3354727 2.368 4290164153
0.71010333 -0.3424263 2.3720002 4289835957
0.71128631 -0.34940112 2.3760002 4289901750
0.71216977 -0.35624743 2.3790002 4289901495
0.71305329 -0.36310965 2.3820002 4289967288
0.71393675 -0.36998776 2.3850002 4289966774
0.71481997 -0.37688163 2.388 4289966774
0.71570331 -0.38379151 2.391 4290032567
0.71688592 -0.39088047 2.3950002 4290032567
0.71746975 -0.39765882 2.3970001 4290229946
0.7180537 -0.40444779 2.3990002 4290032567
0.71833831 -0.41107598 2.4000001 4290164153
0.71952081 -0.41823122 2.404 4290032567
0.71980566 -0.42487779 2.4050002 4289835188
0.72068888 -0.43188819 2.4080002 4290229178
0.72217083 -0.43927869 2.4130001 4290031799
0.72395223 -0.44688064 2.4190001 4290032053
0.72453642 -0.45376492 2.421 4290097846
0.7251209 -0.46065989 2.4230001 4290098360
0.72600472 -0.46775827 2.4260001 4289966260
0.72718787 -0.47506812 2.4300001 4289966260
0.72777271 -0.48200297 2.4320002 4289900467
0.72835761 -0.48894843 2.434 4289966774
0.72924209 -0.4961082 2.437 4289966006
0.73072517 -0.50369656 2.4420002 4289966006
0.73131078 -0.51068491 2.444 4289768627
0.73219579 -0.51789558 2.447 4289769397
0.73248279 -0.52469379 2.4480002 4289835188
0.73366749 -0.5321483 2.4520001 4289703857
0.7342543 -0.53918505 2.4540002 4289769650
0.73484123 -0.54623258 2.4560001 4289835443
0.73602688 -0.55374104 2.46 4289901236
0.73691374 -0.56104332 2.4630001 4289703602
0.73810005 -0.56859237 2.467 4289900467
0.73868841 -0.57569671 2.4690001 4289900467
0.73957646 -0.58304781 2.4720001 4289966260
0.74016565 -0.5901767 2.4740002 4289572016
0.74105448 -0.59755784 2.4770002 4289637809
0.74224287 -0.60519922 2.4810002 4289637811
0.74313259 -0.61261576 2.4840002 4289834420
0.74402285 -0.62004888 2.4870002 4289900213
0.74521273 -0.62775016 2.4910002 4289703088
0.74580479 -0.63496417 2.493 4289900466
0.7463975 -0.64218926 2.4950001 4289637294
0.74728984 -0.64968556 2.4980001 4289703855
0.74878114 -0.65772402 2.503 4289703855
0.74997395 -0.66552454 2.5070002 4289506478
0.7511673 -0.673347 2.5110002 4289638064
0.75176311 -0.68064982 2.513 4289703087
0.75325704 -0.68878466 2.5180001 4289571501
0.75505078 -0.69722337 2.5240002 4289768880
0.75534946 -0.70430034 2.5250001 4289834674
0.75594819 -0.71166497 2.5270002 4289571502
0.75565016 -0.71818823 2.526 4289637295
0.75684881 -0.72614211 2.5300002 4289572271
0.75834727 -0.73440778 2.5350001 4289572271
0.76014578 -0.74299389 2.5410001 4289572271
0.76104778 -0.75072795 2.5440001 4289572271
0.76195061 -0.75847912 2.5470002 4289506478
0.7628544 -0.76624751 2.5500002 4289440430
0.76435739 -0.77463943 2.5550001 4289374637
0.76526326 -0.78244781 2.5580001 4289572271
0.76646918 -0.790582 2.562 4289374892
0.76827443 -0.79936153 2.5680001 4289374892
0.76948243 -0.80754673 2.572 4289440685
0.77009332 -0.81512171 2.5740001 4289440685
0.77070516 -0.82270879 2.5760002 4289309099
0.77191657 -0.83095211 2.5800002 4289506476
0.77342832 -0.8395434 2.585 4289309097
0.77434301 -0.84750843 2.5880001 4289440169
0.77555799 -0.85582119 2.592 4289505962
0.77707356 -0.86449039 2.5970001 4289374890
0.77829129 -0.87285274 2.6010001 4289506474
0.77891183 -0.88056195 2.6030002 4289506474
0.77953362 -0.88828379 2.605 4289506474
0.78105468 -0.89704955 2.6100001 4289309097
0.78287637 -0.90619081 2.6160002 4288980646
0.78440022 -0.91501725 2.6210001 4289440683
0.78562653 -0.92352152 2.6250002 4289440683
0.7862556 -0.9313404 2.6270001 4289309097
0.78748488 -0.93988699 2.631 4289309097
0.78841639 -0.94809759 2.6340001 4289111716
0.7893495 -0.95632696 2.6370001 4289309095
0.78938627 -0.9634791 2.6370001 4289440681
0.79092151 -0.97247428 2.6420002 4289178279
0.79245836 -0.98149908 2.6470001 4289178279
0.79399711 -0.99055398 2.6520002 4289178025
0.7958371 -1.0000151 2.6580002 4289309097
0.79767889 -1.0095118 2.664 4289111718
0.79952282 -1.0190442 2.6700001 4289177509
0.80076975 -1.0278436 2.674 4289309350
0.80201864 -1.0366679 2.6780002 4289177764
0.80326957 -1.0455173 2.6820002 4289111716
0.80512154 -1.0551771 2.6880002 4289177509
0.80637658 -1.0640825 2.6920002 4289112486
0.80733418 -1.0726154 2.6950002 4289178279
0.80799437 -1.0807676 2.697 4289177509
0.80805737 -1.0881276 2.697 4289111716
0.8096208 -1.0975226 2.7020001 4288914337
0.81088674 -1.1065398 2.7060001 4289309095
0.81335384 -1.1172298 2.7140002 4289111718
0.81432486 -1.1258957 2.7170002 4288782753
0.81409925 -1.1329139 2.7160001 4288782751
0.81417567 -1.1403511 2.7160001 4288980130
0.81485397 -1.148638 2.7180002 4288783006
0.81553465 -1.1569405 2.72 4288848285
0.81531823 -1.1639745 2.7190001 4288453527
0.81450427 -1.1701462 2.7160001 4288716699
0.81429243 -1.1771737 2.7150002 4289111971
0.81258327 -1.1820192 2.7090001 4289243557
0.81057614 -1.186398 2.7020001 4288716958
0.80887109 -1.1911854 2.6960001 4288980130
0.80806822 -1.1972789 2.6930001 4289178278
0.80696768 -1.2029141 2.6890001 4289375657
0.80526906 -1.2076327 2.6830001 4289374888
0.80357283 -1.2123241 2.677 4289374888
0.80307949 -1.2188108 2.6750002 4289638060
0.80168796 -1.2239172 2.6700001 4289441450
0.80089939 -1.2299247 2.6670001 4289573290
0.80041367 -1.2363856 2.6650002 4289442218
0.80023098 -1.2433085 2.664 4289770669
0.79884934 -1.2483547 2.6590002 4289507243
0.79716963 -1.2529074 2.6530001 4289572267
0.79489124 -1.2564837 2.6450002 4289704108
0.79441839 -1.2628891 2.6430001 4289573036
0.79364783 -1.2688102 2.6400001 4289573290
0.79318058 -1.2752049 2.638 4289704876
0.55355853 0.92765445 1.8560001 4289309097
0.55434763 0.92394018 1.8590001 4289177511
0.55484056 0.91972053 1.8610001 4289111718
0.55533546 0.9154954 1.863 4289178025
0.55583245 0.91126454 1.8650001 4289046955
0.55573547 0.90605623 1.8650001 4289046955
0.55623657 0.90181941 1.8670001 4289112748
0.55644166 0.89709628 1.868 4289178027
0.55694664 0.89285004 1.8700001 4289243820
0.55715567 0.88812304 1.8710001 4289046439
0.55677116 0.88245153 1.8700001 4289046439
0.55728197 0.87819773 1.8720001 4289177511
0.55779451 0.87393743 1.8740001 4289243306
0.55920172 0.87106144 1.8790001 4289572269
0.55971783 0.86677992 1.881 4289243818
0.56083065 0.86340767 1.8850001 4289178025
0.56164759 0.85956246 1.8880001 4289112232
0.56187123 0.85479975 1.8890001 4289309611
0.56179941 0.84958607 1.8890001 4289112232
0.56172931 0.84437639 1.8890001 4289243304
0.56195831 0.83961481 1.8900001 4289374890
0.56278372 0.83573472 1.8930001 4289309097
0.56301606 0.83096433 1.8940001 4289309097
0.56384462 0.82706428 1.8970001 4289112232
0.56437743 0.82271802 1.899 4288980646
0.56491184 0.81836444 1.9010001 4289178025
0.56515056 0.81357539 1.9020001 4289046693
0.56539094 0.80878443 1.9030001 4289178279
0.56592989 0.80441362 1.9050001 4289046439
0.56647032 0.800035 1.9070001 4289309611
0.5667153 0.79523194 1.9080001 4289243818
0.56696165 0.79042631 1.909 4289243818
0.56720954 0.78561842 1.9100001 4289309097
0.56775588 0.78121662 1.9120001 4289440683
0.56860048 0.77721256 1.9150001 4289309097
0.56914937 0.77279174 1.9170001 4289572269
0.5699966 0.76876336 1.9200001 4289309099
0.5705483 0.76432353 1.9220001 4289440685
0.57080442 0.75948048 1.9230001 4289638064
0.57106191 0.75463456 1.9240001 4289243306
0.57161742 0.75017506 1.9260001 4289441199
0.57247102 0.74609399 1.9290001 4289243820
0.57273233 0.74123085 1.9300001 4289506478
0.57329154 0.73674595 1.932 4289506476
0.57355535 0.73187375 1.9330001 4289375404
0.57441372 0.72775006 1.9360001 4289506990
0.5749765 0.723239 1.9380001 4289374892
0.57494718 0.71797824 1.9380001 4289572271
0.5752157 0.71308732 1.9390001 4289506478
0.575782 0.70855796 1.9410001 4289572271
0.57723922 0.70510656 1.9460001 4289572269
0.57780761 0.70055109 1.9480001 4289638062
0.57808042 0.69562966 1.9490001 4289572785
0.57835442 0.69070458 1.95 4289572785
0.57892603 0.68612719 1.9520001 4289638064
0.57949859 0.68154061 1.9540001 4289769648
0.57977557 0.67659867 1.955 4289769648
0.58094323 0.67268306 1.9590001 4289769648
0.58151883 0.66806597 1.9610001 4289572269
0.58268839 0.66411549 1.9650002 4289441197
0.58296919 0.65913886 1.9660001 4289638576
0.58354747 0.65449077 1.9680001 4289572785
0.58383018 0.64950329 1.9690001 4289506992
0.58470678 0.64516604 1.9720001 4289704371
0.58499122 0.64016479 1.973 4289835443
0.58586955 0.63580292 1.9760001 4289572785
0.58585924 0.63046879 1.9760001 4289770162
0.58644277 0.62576842 1.978 4289638576
0.58702701 0.62105834 1.9800001 4289506990
0.58731556 0.61602741 1.9810001 4289704371
0.58790141 0.61130035 1.983 4289638323
0.58878458 0.6068691 1.9860001 4289769395
0.5893718 0.60211951 1.988 4289966774
0.58995998 0.59736025 1.9900001 4289572530
0.59054863 0.59259075 1.9920001 4289835702
0.59143466 0.58810616 1.9950001 4289769909
0.5920248 0.583314 1.9970001 4290032567
0.59291202 0.57880116 2 4290032567
0.59350353 0.57398611 2.0020001 4289769397
0.59409571 0.56916106 2.0040002 4289769397
0.5946883 0.56432569 2.006 4289900983
0.59528166 0.55948013 2.0080001 4290097592
0.59557921 0.55434847 2.0090001 4289900981
0.59587717 0.54921186 2.01 4289966774
0.59617585 0.54407042 2.0110002 4290032567
0.59736437 0.53972757 2.0150001 4289901236
0.59796047 0.53483331 2.0170002 4289835188
0.59885359 0.53019112 2.02 4290032822
0.59915429 0.52501357 2.0210001 4289901236
0.60004848 0.52034527 2.0240002 4290098615
0.60035014 0.51515222 2.0250001 4290098360
0.60154158 0.51070911 2.029 4290164153
0.6024372 0.50599587 2.0320001 4289900981
0.60303664 0.50102037 2.0340002 4290164153
0.60334003 0.49579066 2.0350001 4289835702
0.60423684 0.49103767 2.0380001 4290033083
0.6048376 0.48603049 2.0400002 4289967288
