# .PCD v0.7 - Point Cloud Data file format
VERSION 0.7
FIELDS x y z rgba
SIZE 4 4 4 4
TYPE F F F U
COUNT 1 1 1 1
WIDTH 1113
HEIGHT 1
VIEWPOINT 0 0 0 1 0 0 0
POINTS 1113
DATA ascii
2.0022383 -0.015052866 3.5740001 4286810759
0.4179399 -0.017271033 0.74600005 4286810759
0.41402158 -0.01910861 0.73900002 4287468691
0.41962782 -0.021393934 0.74900001 4287862167
0.43083718 -0.02404613 0.76900005 4287006344
0.44933051 -0.027248312 0.80200005 4289111720
0.48239174 -0.031582903 0.86100006 4289637295
0.50200754 -0.035291597 0.89600003 4292005075
0.50593632 -0.03801119 0.90300006 4292991456
0.50594378 -0.040455181 0.90300006 4292991456
0.5053913 -0.042851768 0.90200007 4293386214
0.50427896 -0.045192853 0.90000004 4293649386
0.50372744 -0.047576152 0.89900005 4293780972
0.50373667 -0.050009798 0.89900005 4293780972
0.50318611 -0.052385256 0.89800006 4293846508
0.5026359 -0.054755431 0.89700001 4293978094
0.50096548 -0.056992847 0.89400005 4293780715
0.4992955 -0.059214182 0.89100003 4293846508
0.49874669 -0.061557774 0.89000005 4293978094
0.49819833 -0.06389612 0.88900006 4293978094
0.49765044 -0.066229232 0.88800007 4294109680
0.49654257 -0.068479821 0.88600004 4294109680
0.49599561 -0.070799775 0.88500005 4293912301
0.49488863 -0.073031813 0.88300002 4293912301
0.49546355 -0.075509474 0.88400006 4293846508
0.49379712 -0.077640273 0.88100004 4293978094
0.49325201 -0.079936698 0.88000005 4293978094
0.49158636 -0.082040861 0.87700003 4294043373
0.49104223 -0.084321506 0.87600005 4293911787
0.48993799 -0.08649803 0.87400001 4294239982
0.48827362 -0.08856228 0.87100005 4294437362
0.4866097 -0.090610541 0.86800003 4294240497
0.48550677 -0.092749909 0.86600006 4294174704
0.48496497 -0.094988517 0.86500007 4294043887
0.48274168 -0.096884422 0.86100006 4293912301
0.4827615 -0.099219874 0.86100006 4294175473
0.48053893 -0.10108383 0.85700005 4294241266
0.4799991 -0.1032884 0.85600007 4294109680
0.47777736 -0.10511773 0.85200006 4294241266
0.47779921 -0.10743005 0.85200006 4294372338
0.47782165 -0.10974269 0.85200006 4294306545
0.47840545 -0.11218723 0.85300004 4294306545
0.47730726 -0.11423483 0.85100001 4294438645
0.47677052 -0.11640892 0.85000002 4294570231
0.47567338 -0.11843827 0.84800005 4294438645
0.47513765 -0.12059953 0.84700006 4294241266
0.47291946 -0.12232046 0.84300005 4294504695
0.47182366 -0.12431568 0.84100002 4294438902
0.47128949 -0.12645102 0.84000003 4294438902
0.47075588 -0.12858133 0.83900005 4294373109
0.47022277 -0.13070665 0.83800006 4294307316
0.46912915 -0.13266827 0.83600003 4294241523
0.46915835 -0.13494232 0.83600003 4294175730
0.46806574 -0.13688858 0.83400005 4294175730
0.46753496 -0.13899128 0.83300006 4294307059
0.46588212 -0.14074986 0.83000004 4294504438
0.46479112 -0.14266494 0.82800007 4294504438
0.46370056 -0.14456964 0.82600003 4294701303
0.46317199 -0.1466417 0.82500005 4294503924
0.46376699 -0.1490698 0.82600003 4294372338
0.4632397 -0.15113753 0.82500005 4294503154
0.46327463 -0.15338628 0.82500005 4294371568
0.46162543 -0.15506965 0.82200003 4294437361
0.46110001 -0.15712 0.82100004 4294437361
0.45945188 -0.15877731 0.81800002 4294964475
0.45892766 -0.16081253 0.81700003 4294964220
0.45896587 -0.16304246 0.81700003 4294570231
0.45731932 -0.16466616 0.81400001 4294570488
0.45567334 -0.16627415 0.81100005 4294636281
0.45458972 -0.16807415 0.80900002 4294702074
0.45350668 -0.16986391 0.80700004 4294570488
0.45298624 -0.17185666 0.80600005 4294504695
0.4502182 -0.17298082 0.80100006 4294438645
0.44913682 -0.1747344 0.79900002 4294570231
0.44861817 -0.17669921 0.79800004 4294899196
0.44922474 -0.17910764 0.79900002 4294964475
0.44870764 -0.18106848 0.79800004 4294767096
0.44762892 -0.18279497 0.79600006 4294833403
0.44598842 -0.18427894 0.79300004 4294833403
0.44434839 -0.18574727 0.79000002 4294964220
0.44383398 -0.18767568 0.78900003 4294898427
0.4427577 -0.18935886 0.78700006 4294898427
0.4411194 -0.19078857 0.78400004 4294833148
0.44004431 -0.19244877 0.78200006 4294965246
0.43840709 -0.19385001 0.77900004 4294965503
0.4390218 -0.19624205 0.78000003 4294965759
0.43963757 -0.1986405 0.78100002 4294833660
0.44025439 -0.20104538 0.78200006 4294570488
0.43805704 -0.20215754 0.77800006 4294636281
0.43529695 -0.20298605 0.77300006 4294636281
0.43422672 -0.20458405 0.77100003 4294636281
0.43259385 -0.2059039 0.76800001 4294767867
0.4315249 -0.20747916 0.76600003 4294702074
0.43045664 -0.20904438 0.76400006 4294899453
0.42938906 -0.21059966 0.76200002 4294965246
0.42832223 -0.21214496 0.76000005 4294899453
0.42725602 -0.21368031 0.75800002 4294899453
0.42788184 -0.21605973 0.75900006 4294899453
0.42738119 -0.21787094 0.75800002 4294767610
0.42800927 -0.22025819 0.75900006 4294701817
0.42751056 -0.22206616 0.75800002 4294636024
0.42701283 -0.22386988 0.75700003 4294570231
0.42595181 -0.22537073 0.75500005 4294570231
0.42432731 -0.22656046 0.75200003 4294504438
0.42326772 -0.22803891 0.75000006 4294965503
0.42277333 -0.22981431 0.74900001 4294899453
0.42340907 -0.23220474 0.75000006 4294833660
0.42291683 -0.23397723 0.74900001 4294767610
0.42129615 -0.2351152 0.74600005 4294503669
0.42137054 -0.23719171 0.74600005 4294898427
0.42031628 -0.23862816 0.74400002 4294306804
0.41474247 -0.23746669 0.73400003 4294306290
0.39560425 -0.22841938 0.70000005 4293780972
0.36006764 -0.2096397 0.63700002 4292136915
0.33978334 -0.1994707 0.60100001 4291546575
0.32910535 -0.19479153 0.58200002 4291087304
0.32294887 -0.19270729 0.57100004 4291219147
0.31961939 -0.19226414 0.565 4290232252
0.31855279 -0.19316098 0.56300002 4291152845
0.31692085 -0.19370198 0.56 4290626501
0.31642136 -0.19492483 0.55900002 4290625987
0.3164888 -0.19649486 0.55900002 4289836469
0.31542477 -0.19735755 0.55700004 4290099641
0.31436127 -0.19821033 0.55500001 4289507504
0.31103218 -0.1976134 0.54900002 4290560194
0.30826935 -0.19734681 0.54400003 4290823880
0.30550629 -0.1970534 0.53900003 4290626755
0.30784544 -0.20004889 0.54300004 4290495169
0.31642449 -0.20715202 0.55800003 4290560962
0.31650066 -0.20873044 0.55800003 4290955720
0.31147197 -0.20691827 0.54900002 4290297790
0.30984682 -0.20733503 0.546 4290758339
0.31389832 -0.21156207 0.55300003 4289837236
0.31341085 -0.21274711 0.55200005 4288982438
0.30554134 -0.20888078 0.53800005 4289771697
0.28460324 -0.19594112 0.50100005 4289376938
1.3497843 1.1885183 2.3560002 4285693555
1.3451608 1.1779195 2.3490002 4286022520
1.3485633 1.1743543 2.3560002 4286482557
1.344533 1.1643198 2.3500001 4285298536
1.3359392 1.1503948 2.3360002 4285166439
1.3387934 1.1463555 2.342 4279179276
1.3062263 1.1121305 2.286 4283390029
1.3313814 1.1270869 2.3310001 4279639574
1.3576651 1.1427487 2.378 4285495151
1.351433 1.1243865 2.3690002 4285100393
1.3737075 1.1362524 2.4090002 4279047438
1.3589208 1.117427 2.3840001 4285692531
1.3658053 1.1164598 2.3970001 4278915852
1.3800962 1.1214442 2.4230001 4282600259
1.3898286 1.1226079 2.4410002 4283587155
1.4058214 1.1287036 2.47 4286482046
1.4138447 1.128284 2.4850001 4285956215
1.4190253 1.125532 2.4950001 4285495664
1.4179555 1.1178023 2.4940002 4285758834
1.4231449 1.1149869 2.5040002 4285166697
1.4311786 1.1143357 2.5190001 4285232233
1.4386457 1.113168 2.5330002 4284178777
1.444979 1.1110561 2.5450001 4284968033
1.4450713 1.1041144 2.546 4284902500
1.4497095 1.1006229 2.5550001 4284705635
1.4560531 1.0983729 2.5670002 4284771428
1.4612651 1.0952132 2.5770001 4284640353
1.463079 1.0894727 2.5810001 4284837475
1.4688652 1.0866529 2.592 4284968807
1.4729548 1.0825303 2.6000001 4285034600
1.478747 1.0796111 2.6110001 4284639843
1.4834099 1.0758165 2.6200001 4284968807
1.4897743 1.0732026 2.6320002 4284903014
1.4899169 1.0660748 2.6330001 4284771682
1.4940252 1.061764 2.641 4284771682
1.506055 1.0630046 2.6630001 4284771682
1.5169533 1.0633353 2.6830001 4284574303
1.5250257 1.0615929 2.6980002 4284574303
1.5251884 1.0543046 2.6990001 4284574049
1.5270514 1.048182 2.7030001 4284508256
1.5289195 1.0420444 2.707 4284705635
1.5347451 1.0385669 2.7180002 4284508256
1.5411377 1.0354139 2.73 4284508256
1.5469686 1.031824 2.7410002 4284508256
1.5533663 1.028553 2.753 4284245084
1.5603307 1.0255923 2.766 4284376924
1.5678614 1.0229335 2.7800002 4284442716
1.5782131 1.0220286 2.799 4284311130
1.5840559 1.0181249 2.8100002 4284311130
1.5887743 1.0134474 2.8190002 4284245338
1.590115 1.0065858 2.822 4284442717
1.5982203 1.003961 2.8370001 4284179291
1.6080173 1.0023116 2.855 4283916119
1.6195048 1.0016127 2.8760002 4284442456
1.6247996 0.99700242 2.8860002 4284376663
1.626157 0.98994386 2.8890002 4284377177
1.6314586 0.98525393 2.8990002 4283718993
1.6362003 0.98017716 2.9080002 4283982165
1.6443204 0.97706181 2.9230001 4284179545
1.6501926 0.97254288 2.9340003 4283784787
1.657192 0.96862578 2.947 4283916373
1.6625071 0.96366459 2.9570003 4284113752
1.6745703 0.96253049 2.9790001 4283850579
1.6804519 0.9577561 2.9900002 4283982165
1.6902694 0.95514876 3.0080001 4283718994
1.6978409 0.95118791 3.0220001 4283784787
1.7065378 0.94777852 3.0380001 4283784533
1.7118669 0.94243068 3.0480001 4283784533
1.7188833 0.9379518 3.0610001 4283850579
1.7253404 0.93310249 3.0730002 4283784786
1.7301159 0.92728913 3.0820003 4283719247
1.732088 0.91994041 3.0860002 4283719247
1.7402368 0.91582322 3.1010001 4283785040
1.7545596 0.91484606 3.1270001 4283850579
1.7677605 0.91315043 3.1510003 4283718480
1.777596 0.90960455 3.1690001 4283850580
1.7795812 0.90198433 3.1730001 4283521614
1.7838132 0.89547265 3.1810002 4284047958
1.7874874 0.88864261 3.1880002 4283389775
1.8198264 0.87822551 3.2470002 4281942842
1.8274329 0.87302798 3.2610002 4284969573
1.8389637 0.8696124 3.2820001 4283192649
1.853297 0.86739647 3.3080001 4282995270
1.8631492 0.86296588 3.3260002 4283126857
1.8814045 0.8622911 3.3590002 4283258189
1.8906986 0.85737538 3.3760002 4283389775
1.8938347 0.84960699 3.3820002 4283389775
1.9014533 0.84379733 3.3960001 4283521615
1.9073943 0.83717728 3.4070001 4283390028
1.9200555 0.83341658 3.4300001 4283324235
1.9293591 0.82809204 3.4470003 4283521614
1.9420223 0.8241027 3.4700003 4283455821
1.9513291 0.81858248 3.4870002 4283455821
1.9679116 0.81598878 3.5170002 4283390028
1.9766618 0.81002444 3.5330002 4283521614
1.9798193 0.80171061 3.5390003 4283521615
1.9902518 0.79627663 3.5580001 4283389514
2.0001264 0.79052097 3.5760002 4283652686
2.0111215 0.78510684 3.5960002 4283587661
2.0204401 0.77893966 3.6130002 4283587407
2.0269649 0.77161849 3.6250002 4283652433
2.0334918 0.7642349 3.6370001 4283389262
2.0439346 0.75824052 3.6560001 4283520847
2.0521429 0.75132668 3.6710002 4283389261
2.0609119 0.74453586 3.6870003 4283455308
2.0652115 0.73606694 3.6950002 4283060549
2.0717494 0.72834313 3.7070003 4282731584
2.0749364 0.71939415 3.7130001 4282402619
2.0725384 0.70850492 3.7090001 4283256384
2.0746138 0.69914657 3.7130001 4281281564
2.0632837 0.68531531 3.6930001 4281872669
2.0592206 0.67397261 3.6860001 4281938462
2.062423 0.66501212 3.6920002 4281610271
2.0723314 0.65815014 3.7100003 4282071594
2.0738633 0.64857239 3.7130001 4285823088
2.0753975 0.63898057 3.7160001 4285626738
2.0752592 0.62886697 3.7160001 4285824117
2.0773582 0.61942178 3.7200003 4286087289
2.0761087 0.6089741 3.7180002 4285955703
2.0743043 0.59837842 3.7150002 4286021496
2.0747356 0.58843452 3.7160001 4286022008
2.0757287 0.57864273 3.7180002 4285824629
2.0783989 0.56930089 3.7230003 4285824629
2.0788383 0.55933291 3.7240002 4285758836
2.0709078 0.54714924 3.7100003 4285824627
2.0668879 0.53605676 3.7030001 4286087799
2.0634291 0.52514613 3.6970003 4286022008
2.0705774 0.51691711 3.7100003 4285956215
2.0687981 0.50643325 3.7070003 4285955960
2.0681376 0.49623507 3.7060001 4286087289
2.0630157 0.4849945 3.6970003 4286087546
2.0662663 0.47573137 3.7030001 4285890167
2.0605919 0.46442506 3.6930001 4286021753
2.0599418 0.45428187 3.6920002 4285890167
2.0531569 0.44282183 3.6800001 4285758836
2.0530698 0.43283978 3.6800001 4286087546
2.054101 0.42308879 3.6820002 4285824117
2.0568075 0.41366485 3.6870003 4286087289
2.0556116 0.40344861 3.6850002 4286087289
2.0516291 0.3927106 3.6780002 4285758581
2.0509958 0.38263613 3.6770003 4286087546
2.0520377 0.37287223 3.6790001 4286153339
2.0502932 0.36260536 3.6760001 4285955960
2.0485508 0.35235587 3.6730001 4285890167
2.0456958 0.34193721 3.6680002 4285824374
2.0473044 0.33227071 3.6710002 4286021753
2.0450108 0.32197431 3.6670001 4286021753
2.0471814 0.31238127 3.6710002 4286087546
2.0471232 0.30243793 3.6710002 4286153339
2.046509 0.29241568 3.6700001 4286021753
2.0431094 0.28201494 3.6640003 4285890167
2.0397112 0.27164742 3.6580002 4286350718
2.0363157 0.2613132 3.6520002 4286350718
2.0379405 0.25163177 3.6550002 4286087546
2.0395672 0.24193484 3.6580002 4286350461
2.0389655 0.2319686 3.6570001 4286350461
2.0361354 0.22176549 3.6520002 4286218875
2.0294051 0.21118394 3.6400001 4286613633
2.0265794 0.20105512 3.6350002 4286350461
2.020968 0.19069088 3.6250002 4286350461
2.0203762 0.18083037 3.6240001 4286284925
2.0181139 0.17083421 3.6200001 4286219132
2.0164108 0.16090463 3.6170001 4286350718
2.0202847 0.15140954 3.6240001 4286350718
2.0230453 0.14179881 3.6290002 4286284927
2.0252502 0.13212502 3.6330001 4286481793
2.0213246 0.12205966 3.6260002 4286416000
2.0185161 0.11209442 3.6210003 4286547586
2.0179391 0.10226954 3.6200001 4286416000
2.0106747 0.092143796 3.6070001 4286613379
2.0073142 0.082248524 3.6010001 4286547586
2.0106447 0.072627537 3.6070001 4286547587
2.0089602 0.062817425 3.6040001 4286679173
2.010622 0.05311206 3.6070001 4286547586
2.0061538 0.043258384 3.5990002 4286613633
2.0022449 0.033457421 3.5920002 4286679683
2.0022397 0.023740681 3.5920002 4286613890
2.0033512 0.014031812 3.5940001 4286679426
0.42866594 -0.017800244 0.76900005 4286810759
0.42755443 -0.019828964 0.76700002 4287468691
0.43257526 -0.022161059 0.77600002 4287862167
0.43815392 -0.02457317 0.78600001 4287466126
0.46324402 -0.028228385 0.83100003 4289111720
0.49613953 -0.032640629 0.89000005 4291215559
0.5039503 -0.0356001 0.90400004 4292465626
0.50618684 -0.038214572 0.90800005 4293188835
0.50396419 -0.040492453 0.90400004 4293320164
0.50285685 -0.042843793 0.90200007 4293452007
0.50175005 -0.045184426 0.90000004 4293583593
0.50120103 -0.047567263 0.89900005 4293912558
0.50121003 -0.050000433 0.89900005 4293780972
0.50010449 -0.052317094 0.89700001 4293649129
0.49955681 -0.054684103 0.89600003 4293846508
0.49789459 -0.056918375 0.89300007 4293912301
0.49623275 -0.059136551 0.89000005 4293912301
0.49680156 -0.06161527 0.89100003 4294109680
0.49625576 -0.063955851 0.89000005 4294109680
0.49571037 -0.066291198 0.88900006 4294109680
0.49349254 -0.068389475 0.88500005 4294307059
0.49294811 -0.070706248 0.88400006 4294175473
0.49240404 -0.073017783 0.88300002 4293978094
0.49241814 -0.075409532 0.88300002 4293912301
0.4907597 -0.077537157 0.88000005 4293978094
0.49021706 -0.079830401 0.87900007 4293714922
0.48911718 -0.08202491 0.87700003 4293977580
0.48857543 -0.084305063 0.87600005 4293911532
0.48691866 -0.086382158 0.87300003 4294305776
0.48526233 -0.088443235 0.87000006 4294239983
0.48360631 -0.090488307 0.86700004 4294108911
0.48306644 -0.09273155 0.86600006 4294109680
0.48252699 -0.094969653 0.86500007 4294175473
0.48087233 -0.096977599 0.86200005 4294175473
0.48033383 -0.09920001 0.86100006 4294241266
0.47868001 -0.10118145 0.85800004 4294174959
0.47870037 -0.10350882 0.85800004 4294240752
0.47704744 -0.10546647 0.85500002 4294109166
0.47651085 -0.1076603 0.85400003 4294438131
0.4759748 -0.10984904 0.85300004 4294240752
0.47543922 -0.1120327 0.85200006 4294372852
0.47490418 -0.11421128 0.85100001 4294636024
0.47381163 -0.11624788 0.84900004 4294372852
0.4732776 -0.11841362 0.84800005 4294175473
0.47218594 -0.12043195 0.84600002 4294372852
0.47053665 -0.12229476 0.84300005 4294504438
0.46944597 -0.12428945 0.84100002 4294438645
0.46891394 -0.12642418 0.84000003 4294504438
0.46894073 -0.12870714 0.84000003 4294372852
0.4684099 -0.13083458 0.83900005 4294241266
0.46732128 -0.13279837 0.83700001 4294438645
0.46679145 -0.1349131 0.83600003 4294504438
0.46570387 -0.13685878 0.83400005 4294504438
0.46517527 -0.13896088 0.83300006 4294504438
0.46408865 -0.14088844 0.83100003 4294636024
0.46244416 -0.14263339 0.82800007 4294569717
0.46135852 -0.14453748 0.82600003 4294569717
0.46139061 -0.14678662 0.82600003 4294569717
0.46198207 -0.14921673 0.82700002 4294240752
0.46201557 -0.15146966 0.82700002 4294108396
0.46149111 -0.15353729 0.82600003 4294239982
0.45984977 -0.1552228 0.82300001 4294700533
0.45876762 -0.15708388 0.82100004 4294964219
0.45712721 -0.15874058 0.81800002 4294964732
0.45604613 -0.16057833 0.81600004 4294570231
0.45552456 -0.16260527 0.81500006 4294636281
0.45444465 -0.16442515 0.81300002 4294570488
0.4533653 -0.16623476 0.81100005 4294636281
0.45228648 -0.16803409 0.80900002 4294636281
0.45120826 -0.16982317 0.80700004 4294570488
0.45013064 -0.17160201 0.80500007 4294636024
0.44849434 -0.17315471 0.80200005 4294701817
0.44685847 -0.17469169 0.79900002 4294767610
0.44634184 -0.17665577 0.79800004 4294833403
0.44694459 -0.17906331 0.79900002 4294899196
0.4464294 -0.18102339 0.79800004 4294833403
0.44423646 -0.18228999 0.79400003 4294636024
0.44316307 -0.18400013 0.79200006 4294767867
0.44209018 -0.1857001 0.79000002 4294898427
0.44157761 -0.18762772 0.78900003 4293647848
0.43994632 -0.1890696 0.78600001 4294766843
0.43887535 -0.19073915 0.78400004 4294833148
0.43724513 -0.19215256 0.78100002 4294833660
0.43617535 -0.19379912 0.77900004 4294965246
0.43678612 -0.19619019 0.78000003 4294899453
0.43907812 -0.19935046 0.78400004 4294965246
0.43913111 -0.20150559 0.78400004 4294504695
0.43638411 -0.20236278 0.77900004 4294570488
0.43251681 -0.20266838 0.77200001 4294767867
0.43145117 -0.20426282 0.77000004 4294833660
0.43038616 -0.20584723 0.76800001 4294833660
0.4293218 -0.20742165 0.76600003 4294833660
0.42825821 -0.20898603 0.76400006 4294965246
0.42775586 -0.21081673 0.76300001 4294833660
0.42613298 -0.21208492 0.76000005 4294767867
0.42507139 -0.21361938 0.75800002 4294899453
0.42513224 -0.21571308 0.75800002 4294833403
0.4246332 -0.21752058 0.75700003 4294899196
0.42469606 -0.21961379 0.75700003 4294767096
0.42363778 -0.22112238 0.75500005 4294438131
0.42370263 -0.22321242 0.75500005 4294372338
0.42320719 -0.22500521 0.75400001 4294504438
0.42215139 -0.22649252 0.75200003 4294899196
0.42053485 -0.22766604 0.74900001 4294702074
0.42004201 -0.22943766 0.74800003 4294767867
0.42011181 -0.23151451 0.74800003 4294767867
0.42018268 -0.23359269 0.74800003 4294635769
0.4191311 -0.23504207 0.74600005 4294174704
0.41864225 -0.23679955 0.74500006 4294832634
0.41703027 -0.23791155 0.74200004 4294504183
0.41092175 -0.23642088 0.73100001 4294241011
0.39131856 -0.22704136 0.69600004 4293978351
0.3570883 -0.20891401 0.63500005 4292071122
0.33634508 -0.19841047 0.59800005 4290954950
0.32628351 -0.19405854 0.58000004 4290429374
0.3207204 -0.19230628 0.57000005 4291482321
0.31853276 -0.19254036 0.56600004 4291153356
0.31690809 -0.19309624 0.56300002 4289771192
0.3164098 -0.19432811 0.56200004 4290692294
0.31422287 -0.19450989 0.55800003 4290034618
0.31259933 -0.19502188 0.55500001 4291218892
0.31041273 -0.19516411 0.551 4291021513
0.3093532 -0.19599922 0.54900002 4289902778
0.30885783 -0.19718422 0.54800004 4289968571
0.30723578 -0.19763963 0.54500002 4290165950
0.30843341 -0.19990686 0.54700005 4290758341
0.31245255 -0.20402811 0.55400002 4290363583
0.31816709 -0.20930365 0.56400001 4290758341
0.31429303 -0.20828037 0.55700004 4291087052
0.30759621 -0.20533514 0.54500002 4290560960
0.30654261 -0.20611943 0.54300004 4290758338
0.30944234 -0.20957091 0.54800004 4289771443
0.31065017 -0.21189649 0.55000001 4289442732
0.30395037 -0.20880154 0.53800005 4289376938
0.28368556 -0.19625714 0.50200003 4289574317
1.3470979 1.1919372 2.3640001 4285825141
1.3447813 1.1833295 2.3610001 4286219899
1.3464602 1.1782408 2.365 4287009417
1.3515601 1.1761127 2.375 4285364845
1.3538196 1.1714768 2.3800001 4284640095
1.3378903 1.1511687 2.3530002 4279442448
1.3151617 1.1251988 2.3140001 4283192650
1.3350683 1.1357195 2.3500001 4279836953
1.3640523 1.1537237 2.4020002 4285889910
1.3663404 1.148996 2.4070001 4279244817
1.3652297 1.1414044 2.4060001 4284245085
1.3941892 1.1588173 2.4580002 4279310610
1.3584973 1.1225263 2.3960001 4283784533
1.3579798 1.1154763 2.3960001 4280231712
1.3727666 1.1209282 2.4230001 4280100125
1.3830189 1.1225553 2.4420002 4284376670
1.3955353 1.125909 2.4650002 4286745731
1.4074838 1.1286852 2.4870002 4285824374
1.4086814 1.1227763 2.49 4285429869
1.4104509 1.1173085 2.4940002 4285627248
1.4195757 1.117614 2.5110002 4284837474
1.4247448 1.1147358 2.5210001 4285034853
1.4327419 1.114006 2.536 4283850066
1.4317042 1.1062174 2.5350001 4285099618
1.4363197 1.1027793 2.5440001 4284770914
1.4437608 1.1014518 2.5580001 4284705889
1.4495111 1.0987701 2.569 4284968807
1.4496237 1.0917864 2.5700002 4284969060
1.4531258 1.0873377 2.5770001 4284969061
1.4555047 1.0820199 2.582 4284903268
1.463524 1.0808445 2.5970001 4284837221
1.4625307 1.0729787 2.5960002 4285165673
1.4688659 1.0704634 2.608 4284837221
1.4757665 1.068296 2.6210001 4284771428
1.479292 1.0636342 2.628 4284771682
1.4839469 1.0597446 2.6370001 4284837475
1.4936687 1.0594032 2.6550002 4284837474
1.5039533 1.0593636 2.674 4284574303
1.5136763 1.0588309 2.6920002 4284770914
1.5160919 1.0531273 2.697 4284837222
1.5196363 1.0481788 2.7040002 4284574050
1.5198132 1.0408894 2.7050002 4284574049
1.5261748 1.0378038 2.7170002 4284705889
1.5325387 1.0346577 2.7290001 4284705889
1.540028 1.0322038 2.743 4284705889
1.5441513 1.0274373 2.7510002 4284442717
1.5516453 1.0248569 2.7650001 4284311130
1.5580189 1.021469 2.7770002 4284376923
1.5683216 1.0205756 2.7960002 4284245337
1.5724562 1.0155981 2.8040001 4284245337
1.5782763 1.0116605 2.8150001 4284179545
1.5818567 1.0062414 2.822 4284245338
1.5888035 1.0029126 2.835 4284376670
1.5968733 1.0002192 2.8500001 4284376924
1.6066252 0.99849266 2.868 4284376923
1.6135777 0.99494493 2.881 4284245591
1.6182928 0.98996049 2.8900001 4284311384
1.6224511 0.98459226 2.8980002 4284048471
1.6254929 0.97851145 2.904 4284179544
1.633016 0.97507668 2.9180002 4283916373
1.6422195 0.97256362 2.9350002 4283850580
1.648627 0.96831882 2.947 4283850580
1.6567152 0.96499032 2.9620001 4283916373
1.6653644 0.96190697 2.9780002 4283916372
1.673456 0.95841986 2.993 4283916372
1.6815494 0.95485508 3.0080001 4283653201
1.6896447 0.95121223 3.0230002 4283718994
1.6983006 0.94780332 3.039 4283784533
1.705282 0.94338369 3.052 4283652947
1.7105896 0.93797809 3.062 4283850580
1.7164587 0.93282598 3.0730002 4283784786
1.7178627 0.92521173 3.0760002 4283521868
1.7242957 0.92026776 3.0880001 4283785040
1.7329644 0.91644347 3.1040001 4283981651
1.7466588 0.91516781 3.1290002 4284047444
1.7553303 0.91115129 3.1450002 4283850066
1.7667936 0.90848571 3.1660001 4283587408
1.7721204 0.90258294 3.1760001 4283718993
1.775776 0.89578521 3.1830001 4283916372
1.77553 0.88700259 3.1830001 4284245595
1.8149637 0.88015008 3.2550001 4281942842
1.8203039 0.87386298 3.2650001 4284706401
1.8312216 0.87017417 3.2850001 4283522119
1.8454845 0.86795211 3.3110001 4282732098
1.8530601 0.86247849 3.325 4283455568
1.8656532 0.85924166 3.348 4283258190
1.8760183 0.85486692 3.3670001 4283323983
1.8863848 0.85039175 3.3860002 4283521361
1.8956386 0.84531921 3.4030001 4283390028
1.9048941 0.84015721 3.4200001 4283324489
1.9135946 0.83466274 3.4360001 4283521868
1.9261948 0.83076549 3.4590001 4283456075
1.9293302 0.82270938 3.4650002 4283521868
1.936366 0.81626672 3.4780002 4283456075
1.9545377 0.81439555 3.5110002 4283455821
1.9665866 0.80982572 3.5330002 4283390029
1.9747404 0.80355352 3.5480001 4283718226
1.9828963 0.79720247 3.5630002 4283652687
1.9927235 0.79143578 3.5810001 4283389514
2.0097859 0.78841156 3.6120002 4283455821
2.012383 0.77961677 3.6170001 4283587661
2.0177646 0.77186197 3.6270001 4283389515
2.0259299 0.76510602 3.6420002 4283652687
2.0352099 0.75868571 3.6590002 4283455054
2.0428228 0.75156182 3.6730001 4283257675
2.0543311 0.74577761 3.6940002 4283257929
2.0608358 0.7380892 3.7060001 4283454793
2.0634506 0.72896314 3.7110002 4282599998
2.0655122 0.71961892 3.7150002 4282205240
2.0686882 0.71063733 3.7210002 4282927673
2.062973 0.69861382 3.7110002 4281150233
2.0533702 0.68534863 3.6940002 4281741083
2.0502963 0.66432577 3.6890001 4281610271
2.0623798 0.65818375 3.7110002 4281808163
2.066129 0.64930463 3.7180002 4285823342
2.0676582 0.63970214 3.7210002 4285889910
2.065856 0.62907034 3.7180002 4285955703
2.0640569 0.61845696 3.7150002 4286021496
2.0628166 0.60802591 3.7130001 4285758324
2.061579 0.59760773 3.7110002 4285824117
2.0670106 0.58910233 3.7210002 4285955960
2.067445 0.57914412 3.7220001 4285956215
2.066771 0.56887656 3.7210002 4285890422
2.0627677 0.55771548 3.7140002 4285693043
2.0593224 0.5467416 3.7080002 4286218875
2.0558803 0.53580207 3.7020001 4286021495
2.0557733 0.52574903 3.7020001 4286021496
2.0589998 0.51653343 3.7080002 4285955960
2.0555658 0.5056479 3.7020001 4285955703
2.0560212 0.49573356 3.7030001 4286021496
2.0509269 0.48450384 3.6940002 4286153341
2.0558288 0.47563648 3.7030001 4286087548
2.0529606 0.4649615 3.6980002 4285890167
2.0545361 0.45529926 3.7010002 4285890681
2.048342 0.44393775 3.6900001 4285890167
2.0449264 0.43322527 3.6840003 4286284925
2.0442886 0.42312104 3.6830001 4285955960
2.0464282 0.41358441 3.6870003 4286021496
2.0441296 0.40315151 3.6830001 4286087289
2.0412786 0.39263484 3.6780002 4286021753
2.042315 0.38287467 3.6800001 4286087546
2.0427983 0.37300348 3.6810002 4286021753
2.0388441 0.36233893 3.6740003 4285824374
2.036557 0.3520011 3.6700001 4286087546
2.0364919 0.34205881 3.6700001 4286021753
2.0369842 0.33220795 3.6710002 4286087546
2.0341485 0.32182589 3.6660001 4285890167
2.033535 0.31181213 3.6650002 4286153339
2.0340328 0.30196944 3.6660001 4285955960
2.0350881 0.29220182 3.6680002 4285890167
2.0317061 0.28180853 3.6620002 4286087546
2.0299909 0.27167127 3.6590002 4286219132
2.0249491 0.26112175 3.6500001 4286021753
2.0298953 0.25186068 3.6590002 4286153339
2.0315149 0.24215481 3.6620002 4286284668
2.0286977 0.23192595 3.6570001 4286153082
2.023664 0.22148199 3.6480002 4286350461
2.0191872 0.21114531 3.6400001 4286021496
2.0174861 0.20112905 3.6370001 4286284668
2.0135677 0.19091913 3.6300001 4286087289
2.0085421 0.18064786 3.6210003 4286021753
2.0062919 0.17066169 3.6170001 4286350718
2.0073717 0.16096447 3.6190002 4286284925
2.011781 0.15150748 3.6270001 4286350718
2.0161924 0.14200762 3.6350002 4286416000
2.0178318 0.13228302 3.6380002 4286350207
2.0189183 0.12250886 3.6400001 4286613379
2.0139055 0.11238378 3.6310003 4286416000
2.0083404 0.10227943 3.6210003 4286613379
2.0022221 0.092203893 3.6100001 4286416000
2.0027611 0.082462139 3.6110001 4286547587
1.9994197 0.07257428 3.6050003 4286350208
2.0077271 0.06308502 3.6200001 4286613380
2.0071623 0.053279232 3.6190002 4286547586
2.0004981 0.043346789 3.6070001 4286745219
1.9949452 0.033498004 3.5970001 4286679683
1.9916126 0.023729833 3.5910001 4286613890
1.9916093 0.014017595 3.5910001 4286942598
0.42040533 -0.015492225 0.75800002 4286481793
0.43205547 -0.018028485 0.77900004 4286744966
0.43871439 -0.020445758 0.79100001 4287337105
0.44204608 -0.022756688 0.79700005 4289178541
0.45868957 -0.025850331 0.82700002 4287466126
0.48365358 -0.029615788 0.87200004 4289111720
0.50085336 -0.033111431 0.90300006 4292663005
0.50418746 -0.03579054 0.90900004 4293057249
0.50419408 -0.038249742 0.90900004 4293386214
0.50198233 -0.040529899 0.90500003 4293056992
0.5003258 -0.042836025 0.90200007 4293320421
0.49922431 -0.045176212 0.90000004 4293517800
0.49867797 -0.047558602 0.89900005 4293452007
0.4986867 -0.049991313 0.89900005 4293583336
0.4981412 -0.052365839 0.89800006 4293846508
0.4970414 -0.054674082 0.89600003 4293912301
0.49538735 -0.056907915 0.89300007 4293912301
0.49428836 -0.059192095 0.89100003 4293846508
0.49429935 -0.061603889 0.89100003 4294109680
0.49375603 -0.063944004 0.89000005 4294175473
0.49321312 -0.066278882 0.88900006 4294109680
0.49156114 -0.068454012 0.88600004 4294109680
0.49101916 -0.070773013 0.88500005 4294175473
0.4899227 -0.073004112 0.88300002 4294109680
0.48993644 -0.075395368 0.88300002 4294043887
0.48828605 -0.077522554 0.88000005 4294174959
0.4883008 -0.079906106 0.88000005 4294174959
0.48665124 -0.08200936 0.87700003 4294043373
0.48611188 -0.084289022 0.87600005 4294174704
0.48390827 -0.086266734 0.87200004 4294305776
0.4822599 -0.088324636 0.86900002 4294174190
0.48061192 -0.090366557 0.86600006 4294043118
0.48062932 -0.092713647 0.86600006 4294241266
0.47953722 -0.094841473 0.86400002 4294307059
0.47844559 -0.096958734 0.86200005 4294109680
0.47790945 -0.099180631 0.86100006 4294306545
0.47737372 -0.1013974 0.86000001 4294371568
0.47739366 -0.10372967 0.86000001 4293780201
0.47630388 -0.1058156 0.85800004 4293911787
0.4757697 -0.10801705 0.85700005 4293912301
0.47468075 -0.11008462 0.85500002 4294438645
0.47359231 -0.1121417 0.85300004 4294438645
0.47250435 -0.11418828 0.85100001 4294504438
0.47141683 -0.11622436 0.84900004 4294241266
0.47088507 -0.11838955 0.84800005 4294307059
0.46979854 -0.12040737 0.84600002 4294372852
0.46815708 -0.12226966 0.84300005 4294503924
0.46707141 -0.12426382 0.84100002 4294438131
0.46709698 -0.12654845 0.84100002 4294241266
0.46712324 -0.12883352 0.84100002 4294307059
0.46659461 -0.1309631 0.84000003 4294438645
0.46606654 -0.13308768 0.83900005 4294438645
0.46498346 -0.13504592 0.83700001 4294504695
0.4644565 -0.13715781 0.83600003 4294702074
0.46337444 -0.13909796 0.83400005 4294702074
0.46284848 -0.14119716 0.83300006 4294636024
0.46065617 -0.14277479 0.82900006 4294438131
0.46013129 -0.14485598 0.82800007 4294372338
0.45960701 -0.14693221 0.82700002 4294371568
0.46019492 -0.14936432 0.82800007 4294109166
0.45967183 -0.15143618 0.82700002 4294701303
0.45859355 -0.15331732 0.82500005 4294964475
0.4569599 -0.15499952 0.82200003 4294701303
0.45588264 -0.15685725 0.82000005 4294767096
0.45480585 -0.15870465 0.81800002 4294767610
0.45372969 -0.16054177 0.81600004 4294570231
0.452654 -0.16236855 0.81400001 4294636281
0.45213506 -0.16438726 0.81300002 4294702074
0.45161673 -0.16640115 0.81200004 4294636281
0.44998658 -0.16799489 0.80900002 4294636281
0.44891319 -0.16978331 0.80700004 4294702074
0.44784039 -0.17156148 0.80500007 4294833660
0.44621176 -0.17311355 0.80200005 4294767867
0.44569638 -0.17508708 0.80100006 4294899453
0.44462529 -0.17683454 0.79900002 4294833660
0.44466782 -0.17901991 0.79900002 4294899196
0.44415459 -0.18097924 0.79800004 4294899196
0.44252872 -0.18247476 0.79500002 4294702074
0.44090346 -0.18395467 0.79200006 4294767867
0.43983534 -0.18565391 0.79000002 4294964477
0.43988144 -0.18781848 0.79000002 4293385190
0.4388147 -0.18950292 0.78800005 4294701050
0.43719161 -0.19093397 0.78500003 4294767355
0.43501201 -0.19210346 0.78100002 4294899453
0.43394697 -0.19374928 0.77900004 4294833660
0.43455386 -0.19613938 0.78000003 4294899453
0.4362762 -0.19904429 0.78300005 4294767867
0.43632802 -0.2011957 0.78300005 4294438902
0.43303686 -0.20178987 0.77700001 4294570488
0.43086064 -0.2028769 0.77300006 4294767867
0.42979971 -0.20447327 0.77100003 4294833660
0.4287394 -0.20605962 0.76900005 4294899453
0.42712218 -0.20736526 0.76600003 4294767867
0.42606318 -0.20892881 0.76400006 4294833660
0.42500481 -0.21048239 0.76200002 4294833660
0.42394719 -0.21202599 0.76000005 4294899453
0.42233232 -0.21327789 0.75700003 4294636281
0.42294988 -0.21565232 0.75800002 4294504438
0.42245257 -0.21745883 0.75700003 4294635510
0.4225142 -0.21955101 0.75700003 4294372338
0.42146051 -0.22105871 0.75500005 4294174959
0.42152411 -0.22314766 0.75500005 4294570231
0.42047197 -0.22464113 0.75300002 4294964989
0.4199791 -0.22642587 0.75200003 4294899453
0.41892853 -0.22790243 0.75000006 4294833660
0.41843739 -0.22967575 0.74900001 4294899453
0.41850594 -0.23175426 0.74900001 4294702074
0.41857561 -0.23383406 0.74900001 4294504183
0.4175286 -0.23528522 0.74700004 4294635255
0.41704142 -0.23704441 0.74600005 4294569462
0.41487777 -0.23783778 0.74200004 4294635769
0.40824062 -0.23602371 0.73000002 4294372852
0.38705963 -0.22566545 0.69200003 4294109937
0.35468322 -0.20851885 0.634 4291478985
0.33516538 -0.19867872 0.59900004 4291547857
0.32571483 -0.194665 0.58200002 4291284683
0.32017994 -0.1929184 0.57200003 4291284940
0.31912276 -0.19383766 0.57000005 4291284942
0.31638619 -0.19371833 0.565 4291679443
0.31532982 -0.19460925 0.56300002 4290824134
0.31203318 -0.19409634 0.55700004 4290955718
0.30817583 -0.19319978 0.55000001 4291350478
0.30599916 -0.19332741 0.546 4290626755
0.30494374 -0.19414766 0.54400003 4291021513
0.30613154 -0.19639675 0.546 4291021259
0.30844247 -0.19938348 0.55000001 4290363329
0.31243831 -0.20349009 0.55700004 4291087306
0.31587595 -0.20726942 0.56300002 4290692548
0.31594911 -0.20885818 0.56300002 4290034618
0.30928758 -0.20596282 0.551 4290758341
0.30318549 -0.20337775 0.54000002 4290692546
0.30325902 -0.20490593 0.54000002 4290034869
0.30501884 -0.20758247 0.54300004 4289245865
0.30734256 -0.21066266 0.54700005 4289443244
0.30011436 -0.20717177 0.53400004 4289640110
1.3290765 1.1817545 2.345 4286022520
1.3284825 1.1747162 2.345 4286088313
1.3352586 1.1741645 2.358 4287206796
1.3443006 1.175528 2.375 4285167466
1.3522114 1.1758193 2.3900001 4285429611
1.3267565 1.1471831 2.3460002 4279508495
1.3250731 1.1392341 2.3440001 4283258442
1.3341351 1.1404872 2.3610001 4279507988
1.3539292 1.1507734 2.3970001 4284705635
1.3471777 1.1384332 2.3860002 4280297505
1.3466474 1.1313859 2.3860002 4280889895
1.3551518 1.1318899 2.4020002 4279573782
1.3738078 1.1407402 2.4360001 4281481778
1.3676522 1.1289268 2.4260001 4283126604
1.3660165 1.1208824 2.424 4278521093
1.3756559 1.1220506 2.4420002 4284179292
1.3886737 1.1258634 2.4660001 4285034858
1.3898679 1.1200206 2.4690001 4286219132
1.3961327 1.1182275 2.4810002 4285693043
1.3990246 1.1136879 2.4870002 4285890675
1.4075447 1.1135727 2.503 4285166439
1.4188768 1.1155849 2.5240002 4284903521
1.4144727 1.1051906 2.5170002 4284573788
1.4185048 1.1013898 2.5250001 4284639065
1.4264723 1.1005858 2.5400002 4284968293
1.4361253 1.1009958 2.5580001 4284771682
1.4390438 1.0961813 2.5640001 4284969318
1.4391613 1.0892183 2.5650001 4284969060
1.4460162 1.0873201 2.5780001 4284771681
1.4523124 1.0849375 2.5900002 4284771682
1.4558079 1.0804148 2.5970001 4285034086
1.4559453 1.0733819 2.598 4284902501
1.4600106 1.0692242 2.6060002 4284837221
1.4651996 1.0658443 2.6160002 4284968807
1.4737513 1.0648431 2.6320002 4284903268
1.4783858 1.0609468 2.641 4284903268
1.4847025 1.0582042 2.6530001 4284771682
1.4910216 1.0554014 2.6650002 4284837475
1.4995806 1.0541111 2.6810002 4284705121
1.5053447 1.0507861 2.6920002 4284705636
1.5116709 1.0477942 2.7040002 4284442464
1.5124104 1.0408952 2.7060001 4284705635
1.5198603 1.0385745 2.72 4284442717
1.5273122 1.0361822 2.7340002 4284574303
1.5364414 1.0348464 2.7510002 4284574303
1.5388712 1.0289419 2.756 4284508510
1.5440966 1.024869 2.766 4284311130
1.549325 1.0207467 2.776 4284442716
1.5595782 1.0198593 2.7950001 4284311130
1.5653692 1.0159752 2.8060002 4284508509
1.5717205 1.0123953 2.8180001 4284442717
1.5741711 1.0062597 2.8230002 4284376924
1.5805281 1.0025779 2.835 4284310877
1.5846581 0.99743217 2.8430002 4284441949
1.5954785 0.99642438 2.8630002 4284245338
1.6046283 0.99427527 2.8800001 4284179544
1.6115512 0.99066758 2.8930001 4284245337
1.6129068 0.98359686 2.8960001 4284048471
1.6164942 0.97786289 2.9030001 4284179545
1.6239821 0.97443432 2.9170001 4284179545
1.6314719 0.9709335 2.9310002 4283916373
1.6423029 0.96933126 2.9510002 4283982166
1.6497961 0.96566933 2.9650002 4283916373
1.6572914 0.96193498 2.9790001 4284113751
1.660895 0.95588744 2.9860001 4283850579
1.668951 0.95234531 3.0010002 4283521615
1.6775649 0.9490397 3.0170002 4283652947
1.6867362 0.94596249 3.0340002 4283718740
1.6925741 0.94094211 3.0450001 4283718740
1.6989703 0.93617207 3.0570002 4283587407
1.704813 0.93103737 3.0680001 4283850579
1.7089918 0.92494458 3.0760002 4283653200
1.7142844 0.91940826 3.0860002 4283784272
1.727911 0.91824889 3.1110001 4283718479
1.7404271 0.91637135 3.1340001 4283915858
1.7479466 0.9117648 3.1480002 4283915859
1.7543576 0.90651166 3.1600001 4283521615
1.7641015 0.90290189 3.1780002 4283653454
1.7694068 0.89694631 3.1880002 4283653454
1.7702751 0.88871121 3.1900001 4283851092
1.7816898 0.8857106 3.2110002 4282929735
1.7986535 0.88532925 3.2420001 4281876537
1.8078505 0.88099688 3.2590001 4281877049
1.8148304 0.87550479 3.2720001 4284245337
1.8218126 0.86994553 3.2850001 4282666559
1.8332335 0.86641538 3.3060002 4282995270
1.8457639 0.86329246 3.3290002 4283258189
1.8560777 0.85902065 3.348 4283389776
1.8619583 0.85261798 3.3590002 4283258190
1.8728298 0.84841841 3.3790002 4283389775
1.8859193 0.8451063 3.4030001 4283455821
1.8934683 0.83921015 3.4170001 4283455821
1.9026816 0.83396971 3.4340003 4283587661
1.9152205 0.83008027 3.4570003 4283456075
1.9216669 0.82345718 3.4690001 4283587661
1.9259003 0.81583333 3.4770002 4283390282
1.934567 0.81002438 3.4930003 4283455821
1.9548649 0.80894369 3.5300002 4283389514
1.9651954 0.80358815 3.5490003 4283586380
1.9749734 0.79790831 3.5670002 4283586380
1.9841995 0.7919122 3.5840001 4283783759
2.003392 0.78975463 3.6190002 4283455821
2.0004432 0.77878898 3.6140001 4283390028
2.0024798 0.76976877 3.6180003 4283784273
2.0128205 0.76388019 3.6370001 4283521101
2.0237162 0.75809807 3.6570001 4283323722
2.035167 0.75241429 3.6780002 4283521101
2.0488319 0.74742609 3.7030001 4283257928
2.0558591 0.73991513 3.7160001 4283126342
2.0568032 0.73017561 3.7180002 4282797631
2.0577505 0.72042799 3.7200003 4282073908
2.0581477 0.71048117 3.7210002 4283256638
2.0496986 0.69752002 3.7060001 4281281819
2.0390415 0.68390125 3.6870003 4281675290
2.0377901 0.67349535 3.6850002 4282069278
2.0415187 0.66472328 3.6920002 4281675550
2.0491195 0.65715659 3.7060001 4281808163
2.0572755 0.64969051 3.7210002 4284835677
2.0576935 0.63973892 3.7220001 4285757810
2.0564556 0.62927657 3.7200003 4285692531
2.05301 0.61816144 3.7140002 4285824117
2.0523307 0.60789955 3.7130001 4285889910
2.0522072 0.59780622 3.7130001 4285955703
2.0570607 0.58913952 3.7220001 4285626995
2.0563898 0.57887012 3.7210002 4286153339
2.0513008 0.56738526 3.7120001 4285824629
2.0489776 0.55670178 3.7080002 4285758323
2.0466573 0.54604185 3.7040002 4285889910
2.0476549 0.53627354 3.7060001 4285824117
2.0453401 0.52564418 3.7020001 4286153082
2.0480003 0.51629174 3.7070003 4285955960
2.0462427 0.50582117 3.7040002 4286153339
2.0433831 0.49510077 3.6990001 4285889910
2.0421836 0.48480251 3.6970003 4285955962
2.0454051 0.47554389 3.7030001 4285824376
2.043658 0.46512279 3.7000003 4286087546
2.0446749 0.4553344 3.7020001 4285890681
2.0418279 0.44469446 3.6970003 4286088060
2.0406396 0.4344357 3.6950002 4286021753
2.0355885 0.42338496 3.6860001 4285955960
2.0366144 0.41361806 3.6880002 4285890167
2.0326726 0.40285644 3.6810002 4285890167
2.0314941 0.39266765 3.6790001 4286153339
2.0325265 0.38290688 3.6810002 4285824374
2.0330088 0.3730351 3.6820002 4286219132
2.0290761 0.36237007 3.6750002 4286021753
2.0268018 0.35203171 3.6710002 4286218875
2.0289471 0.34246153 3.6750002 4286087546
2.0299897 0.33268964 3.6770003 4286021496
2.0255134 0.3220301 3.6690001 4286218875
2.0243521 0.3119252 3.6670001 4286087289
2.0226405 0.30174968 3.6640003 4286153082
2.0231392 0.29190972 3.6650002 4286087288
2.0186715 0.28137273 3.6570001 4286087801
2.0164142 0.2711767 3.6530001 4286021753
2.0169189 0.26136079 3.6540003 4286219132
2.020185 0.25188416 3.6600001 4286284668
2.0195892 0.24191299 3.6590002 4286416254
2.0178914 0.23182106 3.6560001 4286153082
2.0117803 0.22126034 3.6450002 4286218621
2.0089827 0.2111077 3.6400001 4286087035
2.0106018 0.20142502 3.6430001 4286284668
2.0078082 0.19130595 3.6380002 4286416254
2.0044641 0.18116456 3.6320002 4286218875
1.9994663 0.17091456 3.6230001 4286350718
2.0010931 0.16124736 3.6260002 4286613890
2.0027213 0.15156431 3.6290002 4286416511
2.002696 0.14174826 3.6290002 4286613379
2.0054317 0.13211437 3.6340001 4286416000
2.010376 0.12258834 3.6430001 4286547586
2.0037339 0.1123641 3.6310003 4286547586
1.9970931 0.10220505 3.6190002 4286416000
1.9926618 0.092213318 3.6110001 4286481794
1.9904393 0.082356416 3.6070001 4286416001
1.9882189 0.072521366 3.6030002 4286613380
1.9920697 0.062899776 3.6100001 4286481794
1.9964743 0.053255226 3.6180003 4286744965
1.990948 0.043351259 3.6080003 4286744965
0.4088988 -0.013138252 0.74100006 4286679172
0.4171786 -0.015448654 0.75600004 4286744965
0.42656249 -0.017886501 0.77300006 4286810245
0.43429136 -0.020338813 0.78700006 4287204237
0.44643548 -0.023095284 0.80900002 4288191132
0.47623909 -0.026970889 0.86300004 4287466126
0.49555856 -0.030493475 0.89800006 4290427580
0.50108266 -0.033288926 0.90800005 4292662491
0.50219232 -0.035823613 0.91000003 4293583593
0.50219876 -0.038285077 0.91000003 4293649386
0.50055003 -0.040612306 0.90700006 4293122785
0.49834982 -0.042875931 0.90300006 4293254628
0.49614996 -0.045118023 0.89900005 4293452007
0.49560615 -0.047497265 0.89800006 4293517543
0.49616656 -0.049982421 0.89900005 4293714922
0.49562371 -0.052356515 0.89800006 4293845994
0.49563313 -0.054786336 0.89800006 4293780715
0.49453908 -0.057088871 0.89600003 4293846508
0.49399745 -0.059447158 0.89500004 4293978094
0.49345624 -0.061800197 0.89400005 4294043887
0.49181151 -0.064004302 0.89100003 4293846765
0.49071917 -0.066266894 0.88900006 4293846765
0.48962721 -0.068518832 0.88700002 4294109680
0.48853573 -0.070760146 0.88500005 4294109680
0.48744458 -0.072990783 0.88300002 4294175473
0.4869059 -0.075296186 0.88200003 4294175473
0.48581573 -0.077508315 0.88000005 4294174959
0.48527792 -0.079800598 0.87900007 4293977580
0.48418847 -0.081994191 0.87700003 4294174959
0.48254734 -0.084080964 0.87400001 4294306290
0.48145872 -0.086250663 0.87200004 4294239983
0.48037055 -0.088409744 0.87000006 4294239983
0.47873056 -0.090453923 0.86700004 4294043118
0.47874764 -0.092803225 0.86700004 4293977580
0.47766075 -0.094933294 0.86500007 4294109166
0.47657424 -0.097052783 0.86300004 4294240752
0.47548825 -0.099161722 0.86100006 4294305775
0.47550711 -0.10149587 0.86100006 4294042603
0.47663119 -0.10407151 0.86300004 4293780201
0.47554657 -0.10616507 0.86100006 4294306545
0.47446242 -0.10824812 0.85900003 4294438645
0.47282633 -0.1101919 0.85600007 4294438645
0.4711906 -0.11211976 0.85300004 4294307316
0.47066015 -0.11429998 0.85200006 4294241523
0.46902531 -0.11620141 0.84900004 4294307059
0.46849582 -0.11836606 0.84800005 4294307059
0.46741426 -0.12038335 0.84600002 4294372338
0.46688581 -0.12253518 0.84500003 4294372338
0.46580523 -0.12453424 0.84300005 4294306545
0.4658303 -0.12682374 0.84300005 4294372338
0.46530336 -0.12896048 0.84200007 4294372852
0.46477687 -0.13109218 0.84100002 4294504438
0.46425107 -0.1332189 0.84000003 4294504438
0.463173 -0.13517931 0.83800006 4294504695
0.46264815 -0.13729332 0.83700001 4294504695
0.46212393 -0.13940237 0.83600003 4294373109
0.46160021 -0.14150643 0.83500004 4294570231
0.45997143 -0.14326118 0.83200002 4294569717
0.45889589 -0.14517501 0.83000004 4294240752
0.45892674 -0.1474337 0.83000004 4294240752
0.4595111 -0.14987326 0.83100003 4294503924
0.45843729 -0.15176959 0.82900006 4294964475
0.45570496 -0.15309818 0.82400006 4294899196
0.45407891 -0.15477708 0.82100004 4294964475
0.45411274 -0.15701398 0.82100004 4294832889
0.45414728 -0.15925144 0.82100004 4294701817
0.45362931 -0.16129281 0.82000005 4294570488
0.45200542 -0.16293044 0.81700003 4294636281
0.45093533 -0.16475451 0.81500006 4294636281
0.44931242 -0.16636339 0.81200004 4294702074
0.44824335 -0.16816415 0.81000006 4294702074
0.44662136 -0.1697443 0.80700004 4294833660
0.44610685 -0.17173488 0.80600005 4294899453
0.44448593 -0.17328908 0.80300003 4294767867
0.44341907 -0.17504609 0.80100006 4294767867
0.44235271 -0.17679286 0.79900002 4294767867
0.44239438 -0.17897743 0.79900002 4294701817
0.44188309 -0.18093601 0.79800004 4294833403
0.44081867 -0.18266037 0.79600006 4294767867
0.43864715 -0.18391015 0.79200006 4294833660
0.43813768 -0.18584362 0.79100001 4294964734
0.43818289 -0.1880101 0.79100001 4294701048
0.43656692 -0.18945612 0.78800005 4294898427
0.43495145 -0.19088651 0.78500003 4294898941
0.43333647 -0.19230129 0.78200006 4294899453
0.43283033 -0.19419774 0.78100002 4294767867
0.4334335 -0.19659239 0.78200006 4294833660
0.43459204 -0.19924754 0.78400004 4294702074
0.43297967 -0.20063014 0.78100002 4294438902
0.43025902 -0.20147793 0.77600002 4294636281
0.42864761 -0.20282392 0.77300006 4294767867
0.42814589 -0.20468463 0.77200001 4294899453
0.4265357 -0.20600507 0.76900005 4294833660
0.42492598 -0.20730995 0.76600003 4294767867
0.42442638 -0.20914607 0.76500005 4294702074
0.42392763 -0.21097775 0.76400006 4294767867
0.42287472 -0.21252602 0.76200002 4294636281
0.42182255 -0.21406434 0.76000005 4294438902
0.4218812 -0.21616153 0.76000005 4294241266
0.42083058 -0.21768546 0.75800002 4294306545
0.42089111 -0.21977936 0.75800002 4294372338
0.419842 -0.22128893 0.75600004 4294767096
0.4193491 -0.22308414 0.75500005 4294965246
0.41830149 -0.22457671 0.75300002 4294899453
0.41725469 -0.22605942 0.75100005 4294965246
0.41676426 -0.22783609 0.75000006 4294767867
0.41627473 -0.2296084 0.74900001 4294899453
0.41523027 -0.23106714 0.74700004 4294636281
0.41529852 -0.23314025 0.74700004 4294767355
0.41481182 -0.23489977 0.74600005 4294504183
0.41488224 -0.23697275 0.74600005 4294174704
0.41272885 -0.23776534 0.74200004 4294635255
0.40556881 -0.23562807 0.72900003 4294307059
0.38505298 -0.22559568 0.69200003 4294241523
0.35340017 -0.20878269 0.63500005 4291808464
0.33398286 -0.19894792 0.60000002 4291153099
0.3240239 -0.19460341 0.58200002 4291547857
0.32018751 -0.1938684 0.57500005 4290495424
0.32024929 -0.19547518 0.57500005 4290363840
0.31808376 -0.19571215 0.57100004 4291811027
0.31368971 -0.19454575 0.56300002 4290231995
0.30818027 -0.1926391 0.55300003 4291350476
0.30434176 -0.19173113 0.546 4290626755
0.30217522 -0.19184701 0.54200006 4290955723
0.30112395 -0.19265524 0.54000002 4290823880
0.30286205 -0.19525141 0.54300004 4291350224
0.30683339 -0.19931531 0.55000001 4291021259
0.31359753 -0.20524599 0.56200004 4291416271
0.31757513 -0.20940554 0.56900001 4290100411
0.31318179 -0.20804337 0.56100005 4290494915
0.30599558 -0.20476915 0.54800004 4290560962
0.29992411 -0.20217593 0.537 4290560959
0.29999599 -0.20369451 0.537 4289179560
0.29951018 -0.2048324 0.53600001 4289245352
0.30126098 -0.20750606 0.53900003 4289442732
0.2935096 -0.20360531 0.52500004 4289442731
1.3145707 1.1746128 2.332 4285693810
1.3151157 1.1686233 2.3340001 4285825141
1.3117255 1.1591511 2.329 4287008903
1.3257983 1.1650579 2.355 4285298283
1.3207339 1.1541035 2.3470001 4285232745
1.3398688 1.1642259 2.3820002 4280100889
1.3297573 1.1488916 2.365 4283193162
1.3235962 1.1370502 2.355 4279639574
1.3225037 1.1295989 2.3540001 4282732099
1.329843 1.1293187 2.368 4282731845
1.332693 1.125176 2.3740001 4281942582
1.3355479 1.1210093 2.3800001 4282666052
1.3440171 1.1214994 2.3960001 4278981898
1.3569728 1.1256275 2.4200001 4286153082
1.3693653 1.1291637 2.4430001 4279047437
1.3655066 1.1192573 2.437 4285166444
1.3694991 1.1157857 2.4450002 4283587412
1.3768553 1.1149985 2.4590001 4285955960
1.3802949 1.1109866 2.4660001 4285758581
1.384858 1.1078395 2.4750001 4285495664
1.395018 1.1090975 2.4940002 4285495405
1.4035004 1.1089296 2.5100002 4285298279
1.406394 1.1042899 2.516 4284245591
1.4059395 1.0970093 2.516 4284508509
1.4161053 1.0979677 2.5350001 4284903014
1.4273882 1.0996865 2.5560002 4284968807
1.4302963 1.0948833 2.562 4284969061
1.4309764 1.0883571 2.5640001 4284903267
1.4372418 1.0860444 2.5760002 4284771681
1.4412786 1.081997 2.5840001 4285166440
1.4503374 1.0816555 2.6010001 4285231465
1.4510355 1.0750303 2.6030002 4284902501
1.4584266 1.0733241 2.6170001 4285034087
1.4613626 1.0682881 2.6230001 4284771428
1.4670876 1.0652485 2.6340001 4284771429
1.4728156 1.0621547 2.6450002 4284771428
1.4746494 1.0562149 2.6490002 4284705635
