# .PCD v0.7 - Point Cloud Data file format
VERSION 0.7
FIELDS x y z
SIZE 4 4 4
TYPE F F F
COUNT 1 1 1
WIDTH 1646
HEIGHT 1
VIEWPOINT 0 0 0 1 0 0 0
POINTS 1646
DATA ascii
1.225612 0.91727954 2.7470002
1.2327744 0.91707987 2.7460001
1.239486 0.91654921 2.7440002
1.2461928 0.91602135 2.7420001
1.2533524 0.91583067 2.7410002
1.2600533 0.91530901 2.7390001
1.2672129 0.91512477 2.7380002
1.2743738 0.91494358 2.7370002
1.2815363 0.9147656 2.7360001
1.2896433 0.9152599 2.7370002
1.2977632 0.91575772 2.7380002
1.3039892 0.9149211 2.7350001
1.3087674 0.91308385 2.7290001
1.314485 0.91191882 2.7250001
1.3221288 0.91209579 2.7250001
1.3297809 0.91227645 2.7250001
1.3374416 0.91246086 2.7250001
1.3446172 0.91231424 2.7240002
1.350803 0.91150135 2.7210002
1.3554831 0.90968668 2.7150002
1.3606403 0.90821016 2.71
1.3677983 0.90807796 2.7090001
1.3744522 0.90761417 2.707
1.3790624 0.90581286 2.7010002
1.3815945 0.90267301 2.6910002
1.382531 0.89852911 2.6780002
1.3818462 0.89338046 2.6620002
1.3831683 0.88957632 2.6500001
1.3823332 0.88443118 2.6340001
1.383 0.88029528 2.6210001
1.3825421 0.87548953 2.6060002
1.3841428 0.87202966 2.595
1.3851546 0.86823612 2.5830002
1.3855698 0.86410856 2.5700002
1.3848373 0.85931045 2.5550001
1.3834847 0.85417747 2.539
1.3820516 0.84904599 2.523
1.3783349 0.84256947 2.503
1.3739606 0.83575678 2.4820001
1.3672504 0.82759708 2.457
1.3660009 0.82280612 2.4420002
1.3658007 0.81869078 2.4290001
1.3632764 0.81322867 2.4120002
1.3555521 0.80473208 2.3860002
1.3499722 0.79758394 2.3640001
1.3459983 0.79144806 2.345
1.3425026 0.78565031 2.3270001
1.3429726 0.7822172 2.3160002
1.3410598 0.77743483 2.3010001
1.3338 0.76961184 2.2770002
1.324645 0.7607733 2.25
1.3218523 0.75565374 2.2340002
1.3195727 0.75087327 2.2190001
1.3190105 0.74710941 2.207
1.3141862 0.74097693 2.1880002
1.3110732 0.73586065 2.1720002
1.3024188 0.72769463 2.1470001
1.2991154 0.72257841 2.131
1.2975681 0.71848047 2.118
1.2984196 0.7157414 2.1090002
1.2973753 0.71198636 2.0970001
1.2881908 0.70381713 2.072
1.2851174 0.69904393 2.0570002
1.2807122 0.69359142 2.0400002
1.2781112 0.68915927 2.026
1.2735382 0.68370718 2.0090001
1.2739727 0.68097883 2
1.2769279 0.67961568 1.9950001
1.2734371 0.67484802 1.9800001
1.2685772 0.6693989 1.9630001
1.2727193 0.66872597 1.96
1.2729447 0.6660096 1.9510001
1.2632973 0.65817243 1.927
1.2521996 0.64964873 1.9010001
1.2555165 0.64864343 1.8970001
1.2594907 0.64798468 1.8940001
1.256114 0.6435653 1.8800001
1.2499815 0.6377762 1.8620001
1.2457763 0.63301414 1.8470001
1.2469151 0.63099539 1.84
1.2507513 0.63035262 1.8370001
1.2470621 0.62593788 1.8230001
1.2426147 0.62117988 1.8080001
1.2401613 0.61745298 1.7960001
1.2348747 0.61235106 1.7800001
1.2364738 0.61069077 1.774
1.2422551 0.61110115 1.774
0 0 0
0 0 0
-2.1185822 1.005206 2.9280002
-2.1095219 1.0048008 2.9290001
-2.10551 1.0068064 2.937
-2.0971999 1.0067645 2.9390001
-2.092464 1.0084447 2.9460001
-2.0863028 1.0094486 2.9510002
-2.0787361 1.0097777 2.9540002
-2.0732849 1.0111412 2.96
-2.0650396 1.0111474 2.9620001
-2.0609777 1.0132103 2.97
-2.0451546 1.0094845 2.9610002
-2.0369835 1.0095209 2.9630001
-2.0363574 1.0133121 2.9760001
-2.0356791 1.0171081 2.9890001
-2.0274913 1.0171678 2.9910002
-2.0145981 1.0148575 2.9860001
-2.0078096 1.0156163 2.9900002
-1.9996876 1.0157039 2.9920001
-1.9882553 1.0141039 2.9890001
-1.9801799 1.0142099 2.9910002
-1.9714605 1.0139854 2.9920001
-1.9607942 1.0127535 2.9900002
-1.9469033 1.0098387 2.983
-1.9382786 1.0096421 2.9840002
-1.935491 1.0124974 2.9940002
-1.9300929 1.0140058 3.0000002
-1.9202003 1.0131557 2.9990001
-1.9090637 1.0116391 2.9960001
-1.8947988 1.0084443 2.9880002
-1.8850234 1.0076214 2.9870002
-1.8784175 1.0084928 2.9910002
-1.8643094 1.0053265 2.983
-1.8477844 1.0008231 2.9710002
-1.8387805 1.0003716 2.9710002
-1.8359567 1.0032932 2.9810002
-1.8288033 1.0038643 2.9840002
-1.8204324 1.0037693 2.9850001
-1.8054 0.99998385 2.9750001
-1.7946745 0.99856025 2.9720001
-1.7821836 0.99613684 2.9660001
-1.774531 0.99640793 2.9680002
-1.7680744 0.99735624 2.9720001
-1.7580607 0.99629766 2.97
-1.7539668 0.99859935 2.9780002
-1.7498431 1.0009055 2.9860001
-1.7439405 1.0022111 2.9910002
-1.7275833 0.99749261 2.9780002
-1.7078564 0.99077451 2.9590001
-1.6957226 0.9884184 2.9530001
-1.6864964 0.98774278 2.9520001
-1.6784286 0.98774225 2.9530001
-1.6692396 0.98707879 2.9520001
-1.6617593 0.98742414 2.9540002
-1.65764 0.98977965 2.9620001
-1.6507052 0.99046892 2.9650002
-1.6448748 0.991831 2.97
-1.6318676 0.98885775 2.9620001
-1.6233052 0.98856145 2.9620001
-1.6109401 0.98593497 2.9550002
-1.604594 0.98698419 2.9590001
-1.5987773 0.98837143 2.9640002
-1.5865061 0.9857626 2.9570003
-1.5753552 0.98382652 2.9520001
-1.5663687 0.98322916 2.9510002
-1.5573997 0.98263681 2.95
-1.543723 0.97905254 2.9400001
-1.5306371 0.97580767 2.9310002
-1.5160559 0.97157043 2.9190001
-1.5041368 0.96900362 2.9120002
-1.4917545 0.96610981 2.904
-1.4824935 0.96521747 2.9020002
-1.4712223 0.96299964 2.8960001
-1.461511 0.96178442 2.8930001
-1.4528313 0.9612388 2.8920002
-1.4466648 0.96235901 2.8960001
-1.4389951 0.96248603 2.8970001
-1.4303416 0.96195292 2.8960001
-1.4217031 0.96142387 2.8950002
-1.4189384 0.96488327 2.9060001
-1.416121 0.96834522 2.9170001
-1.4113201 0.97048223 2.924
-1.4050491 0.97162658 2.9280002
-1.398764 0.97277427 2.9320002
-1.3938878 0.97492039 2.9390001
-1.3856802 0.9747479 2.9390001
-1.3770123 0.97424746 2.9380002
-1.3683574 0.97375071 2.937
-1.3615686 0.9745838 2.9400001
-1.352929 0.97409415 2.9390001
-1.3456755 0.97460246 2.9410002
-1.3361437 0.97345716 2.9380002
-1.328896 0.97397202 2.9400001
-1.321195 0.97415894 2.9410002
-1.312602 0.97368652 2.9400001
-1.304909 0.97387975 2.9410002
-1.2958939 0.97308284 2.9390001
-1.2882107 0.97328234 2.9400001
-1.2796577 0.97282296 2.9390001
-1.2719815 0.97302866 2.9400001
-1.2647357 0.9735682 2.9420002
-1.2553489 0.97245616 2.9390001
-1.2464088 0.97167814 2.937
-1.2370638 0.97057241 2.9340003
-1.2310916 0.97211576 2.9390001
-1.2234327 0.97233868 2.9400001
-1.2161871 0.97289521 2.9420002
-1.2064717 0.97147006 2.9380002
-1.2004544 0.97302359 2.9430001
-1.1923887 0.9729265 2.9430001
-1.1851326 0.97349322 2.9450002
-1.1746727 0.97141802 2.9390001
-1.166235 0.97099841 2.9380002
-1.1589897 0.97157252 2.9400001
-1.1521293 0.97247946 2.9430001
-1.1440905 0.97239745 2.9430001
-1.1360559 0.97231781 2.9430001
-1.1284086 0.9725709 2.9440002
-1.1215208 0.97348684 2.947
-1.1127312 0.97275341 2.9450002
-1.1039563 0.97202224 2.9430001
-1.0966855 0.97261453 2.9450002
-1.0879285 0.97188771 2.9430001
-1.0795531 0.97149348 2.9420002
-1.0711864 0.9711014 2.9410002
-1.0635512 0.97137159 2.9420002
-1.0551964 0.97098368 2.9410002
-1.0464938 0.97026747 2.9390001
-1.0395719 0.97120386 2.9420002
-1.0319353 0.97148198 2.9430001
-1.0242964 0.97176182 2.9440002
-1.0156189 0.9710533 2.9420002
-1.0072974 0.97067666 2.9410002
-0.99830437 0.96964186 2.9380002
-0.99067843 0.96992886 2.9390001
-0.98304951 0.97021759 2.9400001
-0.97608095 0.97116804 2.9430001
-0.96745366 0.97047007 2.9410002
-0.96079677 0.97175354 2.9450002
-0.95185572 0.97072893 2.9420002
-0.9438954 0.97069567 2.9420002
-0.93402827 0.96868432 2.9360001
-0.92766529 0.97030377 2.9410002
-0.91908807 0.96961522 2.9390001
-0.91238356 0.97090745 2.9430001
-0.90350813 0.96989191 2.9400001
-0.89434582 0.96854782 2.9360001
-0.88701832 0.96918452 2.9380002
-0.88027996 0.97048211 2.9420002
-0.87381792 0.97211081 2.947
-0.86468619 0.97077203 2.9430001
-0.85615957 0.97009426 2.9410002
-0.84793365 0.96974742 2.9400001
-0.84028584 0.97006154 2.9410002
-0.83291674 0.97070664 2.9430001
-0.82469726 0.97036338 2.9420002
-0.81565124 0.96903163 2.9380002
-0.80772775 0.96902043 2.9380002
-0.80089414 0.97032934 2.9420002
-0.79404008 0.97163939 2.9460001
-0.78503054 0.97031194 2.9420002
-0.7763077 0.96931511 2.9390001
-0.76786333 0.96864915 2.937
-0.76020676 0.96897352 2.9380002
-0.75228953 0.96896887 2.9380002
-0.74437308 0.96896517 2.9380002
-0.73570526 0.96797282 2.9350002
-0.72804618 0.96830058 2.9360001
-0.72038239 0.968629 2.937
-0.7131989 0.9696179 2.9400001
-0.7045604 0.9686287 2.937
-0.69617587 0.96797007 2.9350002
-0.68709904 0.9663226 2.9300001
-0.67804962 0.9646759 2.9250002
-0.66902745 0.96302974 2.9200001
-0.66071188 0.96237373 2.9180002
-0.65240747 0.96171814 2.9160001
-0.64278793 0.95908451 2.9080002
-0.63364846 0.95711082 2.9020002
-0.62540406 0.9564569 2.9000001
-0.6184485 0.95778233 2.904
-0.61147165 0.95910853 2.9080002
-0.60281271 0.95779628 2.904
-0.5937658 0.95582503 2.8980002
-0.58515573 0.95451379 2.8940001
-0.57776421 0.95518184 2.8960001
-0.57095253 0.95683974 2.901
-0.56411409 0.9584983 2.9060001
-0.55686581 0.95949733 2.9090002
-0.54865772 0.95884752 2.9070001
-0.54083252 0.95885772 2.9070001
-0.53319067 0.95919812 2.9080002
-0.52590477 0.9601984 2.9110003
-0.51753479 0.95921987 2.9080002
-0.50900567 0.95791167 2.904
-0.50101578 0.9575932 2.9030001
-0.49337095 0.95793474 2.904
-0.48538625 0.95761675 2.9030001
-0.47724235 0.95696902 2.901
-0.46943268 0.95698112 2.901
-0.4624185 0.95864284 2.9060001
-0.45522088 0.95997483 2.9100001
-0.44769403 0.96064717 2.9120002
-0.43924996 0.95934027 2.9080002
-0.4308272 0.95803314 2.904
-0.42228025 0.9563964 2.8990002
-0.41461775 0.95673895 2.9000001
-0.40723032 0.9577415 2.9030001
-0.39982644 0.95874399 2.9060001
-0.3917318 0.95809692 2.904
-0.38338327 0.95678997 2.9000001
-0.37557408 0.95680267 2.9000001
-0.36776474 0.95681536 2.9000001
-0.36007923 0.95715785 2.901
-0.35202384 0.95651054 2.8990002
-0.34386024 0.95553309 2.8960001
-0.33594459 0.95521533 2.8950002
-0.32780749 0.9542377 2.8920002
-0.32001823 0.9542498 2.8920002
-0.31244463 0.95492154 2.8940001
-0.30475479 0.9552635 2.8950002
-0.29695675 0.95527512 2.8950002
-0.28905857 0.95495647 2.8940001
-0.28116551 0.95463794 2.8930001
-0.2737501 0.95596886 2.8970001
-0.26594567 0.95597976 2.8970001
-0.25823018 0.95632058 2.8980002
-0.24981771 0.9540211 2.891
-0.24186134 0.95337129 2.8890002
-0.23383451 0.95239139 2.8860002
-0.22621526 0.95306104 2.8880002
-0.21843375 0.9530707 2.8880002
-0.21065201 0.95307982 2.8880002
-0.20279983 0.95275879 2.8870001
-0.19508794 0.95309752 2.8880002
-0.18750018 0.95409602 2.891
-0.17958525 0.95344412 2.8890002
-0.17179982 0.95345199 2.8890002
-0.16401424 0.95345956 2.8890002
-0.15633664 0.95412678 2.891
-0.14859669 0.95446378 2.8920002
-0.14075384 0.95414031 2.891
-0.13305418 0.95480663 2.8930001
-0.12534362 0.95547283 2.8950002
-0.11758151 0.95580834 2.8960001
-0.10970017 0.95515358 2.8940001
-0.1018647 0.95482838 2.8930001
-0.09406703 0.95483303 2.8930001
-0.086269245 0.95483726 2.8930001
-0.07847137 0.95484114 2.8930001
-0.07074669 0.95583487 2.8960001
-0.062918819 0.95550799 2.8950002
-0.055096257 0.95518059 2.8940001
-0.047279034 0.95485306 2.8930001
-0.039494436 0.95518512 2.8940001
-0.031693447 0.95518684 2.8940001
-0.023884177 0.95485812 2.8930001
-0.01608026 0.95452905 2.8920002
-0.0082788533 0.9538694 2.8900001
-0.00048872683 0.95419967 2.891
0.0073118447 0.95518976 2.8940001
0.015123358 0.95584935 2.8960001
0.022945639 0.95650864 2.8980002
0.030746832 0.95617723 2.8970001
0.038569219 0.95650566 2.8980002
0.046300922 0.9548533 2.8930001
0.054043017 0.9538607 2.8900001
0.061790276 0.95319796 2.8880002
0.069647126 0.95418489 2.891
0.07746651 0.95451164 2.8920002
0.085350156 0.95549792 2.8950002
0.093121149 0.95516366 2.8940001
0.10106104 0.95647937 2.8980002
0.10864668 0.95449424 2.8920002
0.11644144 0.95448887 2.8920002
0.12415015 0.95382321 2.8900001
0.13212186 0.95513743 2.8940001
0.13987327 0.9548012 2.8930001
0.14777225 0.95545477 2.8950002
0.15546688 0.95478779 2.8930001
0.16303772 0.9534604 2.8890002
0.17058681 0.95213294 2.8850002
0.17823781 0.95146501 2.8830001
0.1857488 0.95013678 2.8790002
0.19337249 0.94946837 2.8770001
0.20091528 0.94846964 2.8740001
0.20873214 0.94879091 2.8750002
0.21625297 0.94779164 2.8720002
0.22344546 0.94547212 2.8650002
0.23035794 0.94216239 2.855
0.23771662 0.94083261 2.8510001
0.24470921 0.93818247 2.8430002
0 0 0
0.25746685 0.92892194 2.8150001
0 0 0
0 0 0
0 0 0
0 0 0
0 0 0
0 0 0
0 0 0
0 0 0
0 0 0
0 0 0
0 0 0
0 0 0
0 0 0
0 0 0
0 0 0
0 0 0
0 0 0
0.071929879 0.16957627 0.514
0.076309152 0.17650214 0.53500003
0 0 0
0 0 0
0 0 0
0 0 0
0 0 0
0 0 0
0.096403487 0.19693851 0.597
0.096861452 0.19462691 0.59000003
0.097281694 0.19231535 0.583
0.098342448 0.19132335 0.58000004
0.098870277 0.18934183 0.574
0.10024051 0.18900971 0.57300001
0.10107244 0.18768807 0.56900001
0.10278443 0.18801577 0.57000005
0.10395275 0.18735394 0.56800002
0.10566743 0.1876817 0.56900001
0.1066339 0.1866902 0.56600004
0.10796639 0.18635842 0.565
0.10909973 0.1856969 0.56300002
0.11081173 0.18602492 0.56400001
0.11232995 0.18602319 0.56400001
0.11364635 0.18569173 0.56300002
0.11454827 0.18470067 0.56
0.11605579 0.18469919 0.56
0.11777329 0.18502761 0.56100005
0.11970882 0.18568592 0.56300002
0.12100922 0.1853549 0.56200004
0.12230428 0.18502398 0.56100005
0.12381468 0.18502295 0.56100005
0.12644213 0.18667108 0.56600004
0.12864439 0.18765967 0.56900001
0.13177799 0.1899676 0.57600003
0.13680117 0.19491407 0.59100002
0 0 0
0 0 0
0 0 0
0 0 0
0 0 0
0 0 0
0 0 0
0 0 0
0 0 0
0 0 0
0 0 0
0 0 0
0 0 0
0 0 0
0 0 0
0.77955002 0.93636662 2.8390002
0.77999699 0.92780185 2.8130002
0.78366464 0.9231959 2.799
0.79036731 0.92221916 2.7960002
0.79762554 0.92190307 2.7950001
0.80545574 0.92224765 2.7960002
0.81300187 0.92226362 2.7960002
0.82054925 0.92228067 2.7960002
0.82809794 0.92229891 2.7960002
0.835648 0.9223184 2.7960002
0.84319955 0.92233896 2.7960002
0.85014391 0.92170119 2.7940001
0.85738611 0.92139447 2.7930002
0.86462426 0.92108881 2.7920001
0.87217134 0.92111468 2.7920001
0.87908983 0.92048192 2.7900002
0.88663495 0.92051035 2.7900002
0.8935408 0.91988039 2.7880001
0.90043777 0.91925174 2.786
0.90667391 0.91796464 2.7820001
0.91190487 0.91568905 2.7750001
0 0 0
0.19808029 0.19569254 0.59300005
0.19227867 0.18844041 0.57100004
0.19009225 0.18481834 0.56
0.18784668 0.1811963 0.54900002
0.18588682 0.17790432 0.53900003
0.18422079 0.17494242 0.53000003
0.1839076 0.17330094 0.52500004
0.1846268 0.17264993 0.523
0.18533568 0.17199923 0.52100003
0.18316665 0.16870758 0.51100004
0 0 0
0 0 0
0 0 0
0 0 0
0 0 0
0 0 0
0 0 0
1.0429478 0.90609056 2.743
1.0577044 0.91243696 2.7620001
1.0667835 0.91383082 2.766
1.0735576 0.91324449 2.7640002
1.0807159 0.91299093 2.7630002
1.0870849 0.9120785 2.7600002
1.0942347 0.91182905 2.7590001
1.1013832 0.91158211 2.7580001
1.1101387 0.91265959 2.7610002
1.1168908 0.91208667 2.7590001
1.1240443 0.91184688 2.7580001
1.1303761 0.9109481 2.7550001
1.1379352 0.91104358 2.7550001
1.1450833 0.91081101 2.7540002
1.1526494 0.91091174 2.7540002
1.1593777 0.91035324 2.7520001
1.1669483 0.91045922 2.7520001
1.1740974 0.91023695 2.7510002
1.1821053 0.91067916 2.7520001
1.1892596 0.91046226 2.7510002
1.1968491 0.91057926 2.7510002
1.2035687 0.91003692 2.7490001
1.2102829 0.90949738 2.7470002
1.2174354 0.90929157 2.7460001
1.2236962 0.90842652 2.743
1.2317423 0.90888911 2.7440002
1.2379936 0.90802968 2.7410002
1.2451435 0.90783578 2.7400002
1.2518371 0.90731347 2.7380002
1.2594467 0.90745717 2.7380002
1.2661372 0.90694094 2.7360001
1.2728239 0.90642798 2.7340002
1.2809116 0.9069128 2.7350001
1.2885408 0.90706944 2.7350001
1.2957039 0.90689784 2.7340002
1.3019154 0.90606612 2.7310002
1.308118 0.9052375 2.7280002
1.3143116 0.90441209 2.7250001
1.3214666 0.90425384 2.7240002
1.3276485 0.90343511 2.7210002
1.3357847 0.90394795 2.7220001
1.341961 0.90313601 2.7190001
1.348129 0.90232766 2.7160001
1.3527915 0.90052569 2.71
1.3579313 0.89905924 2.7050002
1.3660809 0.89959061 2.7060001
1.3742454 0.9001261 2.707
1.3808937 0.89966816 2.7050002
1.3829206 0.89621991 2.6940002
1.3828299 0.89144301 2.6790001
1.3816261 0.8860023 2.6620002
1.3808576 0.88089585 2.6460001
1.3815823 0.87678999 2.6330001
1.3827705 0.87301922 2.6210001
1.383901 0.86925083 2.6090002
1.3839068 0.86481804 2.595
1.3838432 0.86038721 2.5810001
1.3858663 0.857292 2.5710001
1.3862174 0.85319877 2.5580001
1.3865051 0.84910756 2.5450001
1.3839909 0.84334975 2.5270002
1.3808335 0.83725905 2.5080001
1.3731505 0.82849765 2.4810002
1.3664353 0.8204034 2.4560001
1.3651799 0.81565017 2.4410002
1.3644112 0.81123245 2.427
1.3618782 0.80581343 2.4100001
1.3541462 0.79738516 2.3840001
1.3485583 0.79029423 2.3620002
1.3462975 0.78521115 2.3460002
1.3439554 0.78012919 2.3300002
1.3426918 0.77571821 2.3160002
1.3419412 0.77164376 2.3030002
1.336442 0.76488936 2.2820001
1.3273004 0.75612313 2.2550001
1.3215617 0.74936748 2.2340002
1.3180898 0.74395365 2.217
1.3163233 0.73954749 2.2030001
1.3180901 0.73715764 2.1950002
1.3131846 0.73107499 2.1760001
1.3057537 0.72364783 2.1530001
1.2981988 0.71621925 2.1300001
1.2990952 0.71349877 2.1210001
1.2974896 0.70943487 2.108
1.298913 0.70705569 2.1000001
1.2934656 0.70097417 2.0810001
1.2897919 0.69590312 2.0650001
1.2835253 0.68948388 2.0450001
1.2840899 0.68677413 2.036
1.2719401 0.6773175 2.0070002
1.2717274 0.67427182 1.9970001
1.2727491 0.67190403 1.9890001
1.2685937 0.66683519 1.973
1.2662938 0.66278094 1.96
1.2710705 0.66244942 1.9580001
1.2732425 0.66076887 1.9520001
1.2616305 0.65197927 1.9250001
1.2505255 0.64352447 1.899
1.2518463 0.64150798 1.8920001
1.2557993 0.64085168 1.8890001
1.2550753 0.63782394 1.8790001
1.2455817 0.6303829 1.8560001
1.2420287 0.62599736 1.8420001
1.2472118 0.62603277 1.8410001
1.2510456 0.62539333 1.8380001
1.2459887 0.62033278 1.8220001
1.2380997 0.61390895 1.802
1.232862 0.60884631 1.7860001
1.2337819 0.60685301 1.779
1.2332824 0.60418022 1.7700001
1.2334441 0.60185146 1.7620001
0 0 0
0 0 0
-2.1178331 0.9966439 2.9280002
-2.1138244 0.99862695 2.9360001
-2.1069322 0.99925822 2.9400001
-2.1050432 1.0022767 2.9510002
-2.0960169 1.001907 2.9520001
-2.0912595 1.0035831 2.9590001
-2.0801597 1.0022167 2.9570003
-2.0768089 1.0045877 2.9660001
-2.0678575 1.0042578 2.9670002
-2.0582385 1.0035998 2.9670002
-2.0507231 1.0039662 2.97
-2.0342858 0.99995011 2.96
-2.0357292 1.0047263 2.9760001
-2.039824 1.0108553 2.9960001
-2.028913 1.0095679 2.9940002
-2.0173697 1.007954 2.9910002
-2.0058751 1.0063511 2.9880002
-2.0004413 1.0077883 2.9940002
-1.9956627 1.0095688 3.0010002
-1.9908676 1.0113561 3.0080001
-1.9801276 1.0101255 3.006
-1.9681158 1.0082331 3.0020001
-1.9541976 1.0053439 2.9950001
-1.9409984 1.0028015 2.9890001
-1.940141 1.0066409 3.0020001
-1.928937 1.0051221 2.9990001
-1.9184161 1.0039475 2.9970002
-1.9092056 1.0034515 2.9970002
-1.9012865 1.0036329 2.9990001
-1.8927476 1.0034872 3.0000002
-1.8804584 1.0013431 2.9950001
-1.870721 1.0005453 2.9940002
-1.8566593 0.99741697 2.9860001
-1.8500925 0.99830538 2.9900002
-1.8484486 1.0018699 3.0020001
-1.8381752 1.0007681 3.0000002
-1.8279341 0.99967408 2.9980001
-1.811658 0.9952547 2.9860001
-1.8027182 0.99484384 2.9860001
-1.7937976 0.99443984 2.9860001
-1.7848961 0.99404275 2.9860001
-1.7730393 0.99198866 2.9810002
-1.7635978 0.99127293 2.9800003
-1.7588907 0.99322426 2.9870002
-1.7576755 0.99717468 3.0000002
-1.7488226 0.99680871 3.0000002
-1.7330266 0.99246329 2.9880002
-1.7184724 0.98879105 2.9780002
-1.7068635 0.9867869 2.973
-1.6975851 0.98611712 2.9720001
-1.6866235 0.98445839 2.9680002
-1.6773964 0.98380125 2.9670002
-1.6704402 0.98447585 2.97
-1.6651602 0.98614967 2.9760001
-1.6576333 0.98650289 2.9780002
-1.6512167 0.98752356 2.9820001
-1.6425879 0.98722464 2.9820001
-1.6301372 0.98461437 2.9750001
-1.6177406 0.9820109 2.9680002
-1.6113619 0.98305249 2.9720001
-1.6049731 0.98409843 2.9760001
-1.5942826 0.98250419 2.9720001
-1.584695 0.98157662 2.97
-1.5735391 0.97966313 2.9650002
-1.565063 0.97940713 2.9650002
-1.553449 0.97717452 2.9590001
-1.5397924 0.97362709 2.9490001
-1.5262041 0.97008598 2.9390001
-1.5142332 0.96754098 2.9320002
-1.504881 0.96665126 2.9300001
-1.495551 0.96576625 2.9280002
-1.4816711 0.96191818 2.9170001
-1.4708946 0.96005422 2.9120002
-1.4616632 0.95918411 2.9100001
-1.4559493 0.96062517 2.9150002
-1.4487269 0.96108145 2.9170001
-1.4395274 0.96022385 2.9150002
-1.4303483 0.95937043 2.9130001
-1.4255836 0.96148491 2.9200001
-1.4207885 0.96360224 2.927
-1.4145153 0.96473527 2.9310002
-1.4077483 0.96554261 2.9340003
-1.402881 0.96766937 2.9410002
-1.3984573 0.97012812 2.9490001
-1.3921112 0.97127396 2.9530001
-1.3829392 0.97044986 2.9510002
-1.3770469 0.97193122 2.9560001
-1.3692825 0.97210068 2.9570003
-1.3610595 0.97194475 2.9570003
-1.351014 0.9704777 2.9530001
-1.3414526 0.96934307 2.95
-1.3346268 0.97018349 2.9530001
-1.3277913 0.97102684 2.9560001
-1.3196067 0.97088784 2.9560001
-1.3114288 0.97075218 2.9560001
-1.3023758 0.96996301 2.9540002
-1.2946543 0.97016197 2.9550002
-1.2851919 0.96905077 2.9520001
-1.2783481 0.96991235 2.9550002
-1.2697743 0.969464 2.9540002
-1.2603576 0.96836239 2.9510002
-1.2509632 0.96726388 2.9480002
-1.2420124 0.96649659 2.9460001
-1.2364286 0.96835643 2.9520001
-1.2283207 0.96825063 2.9520001
-1.2210449 0.9688037 2.9540002
-1.21171 0.9677195 2.9510002
-1.2064753 0.9699173 2.9580002
-1.1999916 0.97113353 2.9620001
-1.1930883 0.97202426 2.9650002
-1.1833757 0.97062284 2.9610002
-1.1736895 0.96922415 2.9570003
-1.1656065 0.9691391 2.9570003
-1.1583103 0.96971184 2.9590001
-1.1498418 0.96930403 2.9580002
-1.1413825 0.96889842 2.9570003
-1.1333159 0.9688229 2.9570003
-1.1263949 0.96973252 2.96
-1.11795 0.96933389 2.9590001
-1.1091393 0.96860993 2.9570003
-1.1007153 0.96821576 2.9560001
-1.0923003 0.96782374 2.9550002
-1.0846281 0.96808892 2.9560001
-1.0769538 0.96835619 2.9570003
-1.0692772 0.96862531 2.9580002
-1.0598043 0.96725923 2.9540002
-1.0507125 0.9662227 2.9510002
-1.0437598 0.9671526 2.9540002
-1.0364432 0.96775693 2.9560001
-1.028075 0.96738094 2.9550002
-1.0190243 0.96635211 2.9520001
-1.0106776 0.96597975 2.9510002
-1.0030183 0.96626395 2.9520001
-0.99569309 0.96687698 2.9540002
-0.98835963 0.96749181 2.9560001
-0.98068601 0.96778095 2.9570003
-0.97235137 0.967417 2.9560001
-0.96532923 0.96836382 2.9590001
-0.95699894 0.96800327 2.9580002
-0.94803435 0.96698964 2.9550002
-0.93877 0.96565056 2.9510002
-0.93142158 0.96627611 2.9530001
-0.92343879 0.96624869 2.9530001
-0.91576779 0.96654999 2.9540002
-0.90655667 0.96521664 2.95
-0.89858717 0.96519339 2.95
-0.89092129 0.96549875 2.9510002
-0.88355052 0.96613246 2.9530001
-0.87706017 0.96774906 2.9580002
-0.86848754 0.96707654 2.9560001
-0.86021823 0.96673256 2.9550002
-0.85253251 0.96704406 2.9560001
-0.8439855 0.96637523 2.9540002
-0.83601648 0.96636188 2.9540002
-0.82720774 0.96536821 2.9510002
-0.81980425 0.96601117 2.9530001
-0.81211627 0.96632826 2.9540002
-0.80524063 0.96762764 2.9580002
-0.79726624 0.96761954 2.9580002
-0.7884922 0.96663094 2.9550002
-0.77947104 0.96531636 2.9510002
-0.77151811 0.96531105 2.9510002
-0.76330721 0.96497941 2.95
-0.75561464 0.96530318 2.9510002
-0.74741054 0.96497327 2.95
-0.73896199 0.96431726 2.9480002
-0.7312687 0.9646433 2.9490001
-0.72332531 0.96464294 2.9490001
-0.71635276 0.96595186 2.9530001
-0.70744026 0.96464467 2.9490001
-0.69973552 0.96497363 2.95
-0.69108808 0.96399492 2.947
-0.68222529 0.96268964 2.9430001
-0.67269707 0.96040374 2.9360001
-0.66433901 0.95975399 2.9340003
-0.65554464 0.95845044 2.9300001
-0.64655101 0.95682049 2.9250002
-0.63671118 0.95388252 2.9160001
-0.62799841 0.95258069 2.9120002
-0.62037212 0.95291495 2.9130001
-0.61379206 0.95488524 2.9190001
-0.60572678 0.95456618 2.9180002
-0.59807682 0.9549017 2.9190001
-0.5892083 0.95327485 2.914
-0.58196294 0.95426548 2.9170001
-0.5743078 0.95460236 2.9180002
-0.56722981 0.95592099 2.9220002
-0.55955595 0.95625842 2.9230001
-0.55168796 0.95626903 2.9230001
-0.54419214 0.95693433 2.9250002
-0.53595203 0.95629126 2.9230001
-0.52808398 0.95630282 2.9230001
-0.51950395 0.95500576 2.9190001
-0.5111208 0.95403624 2.9160001
-0.50327128 0.95404834 2.9160001
-0.49525189 0.9537335 2.9150002
-0.48723775 0.95341879 2.914
-0.47939339 0.95343143 2.914
-0.47171071 0.95377147 2.9150002
-0.46449983 0.95509309 2.9190001
-0.45664155 0.95510614 2.9190001
-0.44924435 0.95610088 2.9220002
-0.44092447 0.95513248 2.9190001
-0.43232378 0.95350963 2.914
-0.42360422 0.95155954 2.9080002
-0.41548863 0.95091838 2.9060001
-0.40836555 0.95256776 2.9110003
-0.40107781 0.95388997 2.9150002
-0.39322871 0.95390332 2.9150002
-0.3845861 0.95195305 2.9090002
-0.37675264 0.95196623 2.9090002
-0.36891896 0.95197934 2.9090002
-0.36120915 0.95231968 2.9100001
-0.35312942 0.95167816 2.9080002
-0.3450602 0.95103645 2.9060001
-0.33688542 0.95006734 2.9030001
-0.32883996 0.9494254 2.901
-0.32091567 0.94911063 2.9000001
-0.31332043 0.94977754 2.9020002
-0.30560884 0.95011699 2.9030001
-0.29809684 0.95111096 2.9060001
-0.29036862 0.95144999 2.9070001
-0.28273195 0.95211637 2.9090002
-0.27480081 0.95180058 2.9080002
-0.2668747 0.95148456 2.9070001
-0.25913203 0.95182294 2.9080002
-0.25086522 0.95019716 2.9030001
-0.24287623 0.94955295 2.901
-0.23465477 0.94792676 2.8960001
-0.22716501 0.94924611 2.9000001
-0.2195778 0.95023787 2.9030001
-0.21175538 0.95024729 2.9030001
-0.20393279 0.95025676 2.9030001
-0.19624503 0.95092028 2.9050002
-0.18854634 0.95158374 2.9070001
-0.18058796 0.95093739 2.9050002
-0.17275913 0.95094556 2.9050002
-0.16487333 0.95062596 2.904
-0.15715499 0.9512881 2.9060001
-0.14932293 0.9512952 2.9060001
-0.14158806 0.95195675 2.9080002
-0.13384227 0.95261788 2.9100001
-0.12591235 0.95196927 2.9080002
-0.11811487 0.95230246 2.9090002
-0.11027395 0.95230782 2.9090002
-0.10246813 0.9526403 2.9100001
-0.094591752 0.95231771 2.9090002
-0.086690851 0.95166725 2.9070001
-0.078882001 0.95199865 2.9080002
-0.071092084 0.95265698 2.9100001
-0.063226111 0.95233285 2.9090002
-0.055365454 0.95200837 2.9080002
-0.047461081 0.95070142 2.904
-0.039632812 0.95070338 2.904
-0.031793546 0.95037788 2.9030001
-0.023976145 0.9507066 2.904
-0.016153324 0.95103496 2.9050002
-0.0083193602 0.95070815 2.904
-0.00049094821 0.95070845 2.904
0.0073425174 0.95136297 2.9060001
0.015191982 0.95234466 2.9090002
0.023057599 0.95332575 2.9120002
0.030907527 0.95332456 2.9120002
0.038717482 0.95234066 2.9090002
0.046463199 0.95037425 2.9030001
0.054213922 0.94906235 2.8990002
0.062028594 0.94905949 2.8990002
0.069867291 0.94938374 2.9000001
0.077791654 0.95068955 2.904
0.085708 0.95166779 2.9070001
0.093576081 0.9519909 2.9080002
0.10148431 0.95264095 2.9100001
0.10925291 0.95198119 2.9080002
0.11705087 0.95164835 2.9070001
0.12480038 0.95098805 2.9050002
0.13258459 0.95065451 2.904
0.14031491 0.94999343 2.9020002
0.14803429 0.94933194 2.9000001
0.15601143 0.95030695 2.9030001
0.16372238 0.94964474 2.901
0.17124501 0.94800043 2.8960001
0.17855497 0.94537359 2.8880002
0.18601522 0.94372857 2.8830001
0.19364995 0.94306523 2.881
0.20120381 0.94207442 2.878
0.20888649 0.94173795 2.8770001
0.21603647 0.9391098 2.8690002
0.22251916 0.93386298 2.8530002
0.22883472 0.92828858 2.8360002
0.2348083 0.92173219 2.8160002
0 0 0
0 0 0
0 0 0
0 0 0
0 0 0
0 0 0
0 0 0
0 0 0
0 0 0
0 0 0
0 0 0
0 0 0
0 0 0
0 0 0
0 0 0
0 0 0
0 0 0
0 0 0
0 0 0
0 0 0
0.071232446 0.16656056 0.509
0.075027801 0.17212109 0.52600002
0.079495989 0.17899038 0.54700005
0.083781168 0.185205 0.56600004
0.086812161 0.18847455 0.57600003
0.088669717 0.18912637 0.57800001
0.089913607 0.18846937 0.57600003
0.091305487 0.18813962 0.57500005
0.092368953 0.18715546 0.57200003
0.093744621 0.18682577 0.57100004
0.094947994 0.18616891 0.56900001
0.096479692 0.18616645 0.56900001
0.097494625 0.18518254 0.56600004
0.098843254 0.18485297 0.565
0.1001865 0.18452349 0.56400001
0.101885 0.1848484 0.565
0.10340585 0.18484618 0.565
0.10492669 0.18484399 0.565
0.10607072 0.18418756 0.56300002
0.10739508 0.18385836 0.56200004
0.10890785 0.18385637 0.56200004
0.11042061 0.18385442 0.56200004
0.1119334 0.18385258 0.56200004
0.11304244 0.18319649 0.56
0.11454987 0.18319477 0.56
0.11585008 0.18286602 0.55900002
0.11756478 0.18319158 0.56
0.11928493 0.18351726 0.56100005
0.12057982 0.18318874 0.56
0.12186939 0.18286034 0.55900002
0.12359502 0.18318629 0.56
0.1255495 0.18383944 0.56200004
0.1272887 0.18416557 0.56300002
0.12903334 0.1844918 0.56400001
0.13147786 0.18579951 0.56800002
0.13534902 0.18906999 0.57800001
0.14330076 0.19790144 0.60500002
0 0 0
0 0 0
0 0 0
0 0 0
0 0 0
0 0 0
0 0 0
0 0 0
0 0 0
0 0 0
0 0 0
0 0 0
0 0 0
0 0 0
0.7797091 0.91988474 2.812
0.78225321 0.91400701 2.7940001
0.78922385 0.91336417 2.7920001
0.79675579 0.91337663 2.7920001
0.80515301 0.91437173 2.7950001
0.81211364 0.91373217 2.7930002
0.81906492 0.91309357 2.7910001
0.82719129 0.91376495 2.7930002
0.83532965 0.91443729 2.7950001
0.84287733 0.91445661 2.7950001
0.84920931 0.91316849 2.7910001
0.856749 0.91319031 2.7910001
0.86398059 0.91288614 2.7900002
0.87152088 0.9129104 2.7900002
0.8781175 0.91195452 2.7870002
0.88565314 0.91198152 2.7870002
0.89254951 0.91135544 2.7850001
0.90008318 0.91138524 2.7850001
0.90566355 0.90945297 2.779
0.91022772 0.90654027 2.7700002
0 0 0
0 0 0
0.18924016 0.18394788 0.56200004
0.18736862 0.18068248 0.55200005
0.18612765 0.17807184 0.54400003
0.18484376 0.17546126 0.53600001
0.18421212 0.17350549 0.53000003
0.18354841 0.17154986 0.52400005
0.18391161 0.17057656 0.52100003
0.18425903 0.16960348 0.51800001
0.1835154 0.16764833 0.51200002
0 0 0
0 0 0
0 0 0
0 0 0
0 0 0
0 0 0
0 0 0
1.0390781 0.89535618 2.733
1.0557197 0.90328687 2.7570002
1.0655541 0.90532303 2.7630002
1.0738715 0.9060508 2.7650001
1.080248 0.90514237 2.7620001
1.086612 0.90423602 2.7590001
1.0937568 0.90398723 2.7580001
1.1012995 0.90406853 2.7580001
1.1088465 0.90415221 2.7580001
1.1155882 0.90358251 2.756
1.122731 0.90334302 2.7550001
1.1302829 0.90343374 2.7550001
1.1374265 0.90319914 2.7540002
1.1445693 0.90296686 2.753
1.1517115 0.90273708 2.7520001
1.1596956 0.903166 2.753
1.1664183 0.90261328 2.7510002
1.1727084 0.90173495 2.7480001
1.1794168 0.90118724 2.7460001
1.1865519 0.90097046 2.7450001
1.1949921 0.90174109 2.7470002
1.2016977 0.90120155 2.7450001
1.2092792 0.90132129 2.7450001
1.2155367 0.90045893 2.7420001
1.2222297 0.8999275 2.7400002
1.2298156 0.90005606 2.7400002
1.2369559 0.89985889 2.7390001
1.2445515 0.89999336 2.7390001
1.2512395 0.89947379 2.7370002
1.2583829 0.89928567 2.7360001
1.2646022 0.89844328 2.733
1.2712773 0.89793265 2.7310002
1.2788849 0.89808273 2.7310002
1.2864997 0.89823616 2.7310002
1.2931743 0.89773512 2.7290001
1.2993685 0.8969081 2.7260001
1.3060333 0.89641356 2.7240002
1.3126944 0.89592206 2.7220001
1.3188674 0.89510471 2.7190001
1.3255197 0.89461988 2.7170002
1.3316783 0.89380914 2.7140002
1.3398025 0.8943193 2.7150002
1.3454595 0.89318597 2.7110002
1.3516017 0.89238548 2.7080002
1.3557283 0.89026999 2.7010002
1.3633578 0.89046508 2.7010002
1.3709967 0.89066416 2.7010002
1.3766031 0.88954794 2.697
1.3786039 0.88612586 2.6860001
1.3805523 0.88270617 2.6750002
1.3819289 0.8789587 2.6630001
1.3806385 0.87356287 2.6460001
1.3808354 0.86915904 2.6320002
1.382545 0.86574799 2.6210001
1.3831419 0.8616786 2.608
1.3836749 0.85761124 2.595
1.3825361 0.85255438 2.5790002
1.3856277 0.85014409 2.5710001
1.3854338 0.84575224 2.5570002
1.3840811 0.84070057 2.5410001
1.3810049 0.83465743 2.5220001
1.3783811 0.82894623 2.5040002
1.3728981 0.82158023 2.4810002
1.3689623 0.8152079 2.4610002
1.3665997 0.80983001 2.444
1.3675231 0.80644214 2.4330001
1.3655696 0.80139863 2.4170001
1.3572882 0.79270798 2.3900001
1.350003 0.78467953 2.365
1.3471743 0.77930546 2.348
1.3436821 0.77360028 2.3300002
1.3400964 0.7678957 2.312
1.3375831 0.76285607 2.296
1.3355743 0.75814992 2.2810001
1.3299589 0.75144988 2.26
1.3224585 0.74375165 2.2360001
1.317801 0.73771596 2.217
1.3172262 0.73401064 2.2050002
1.3177941 0.73097306 2.1950002
1.3140929 0.72560579 2.1780002
1.3060596 0.71790588 2.154
1.2991154 0.71087128 2.1320002
1.2951149 0.7055034 2.115
1.2941035 0.70180446 2.1030002
1.2936525 0.69844097 2.092
1.2943926 0.69574755 2.0830002
1.2944688 0.69272244 2.0730002
1.2882243 0.68635643 2.0530002
1.283765 0.68099284 2.036
1.2766831 0.67429078 2.0150001
1.2688514 0.6672526 1.9930001
1.2666579 0.6632272 1.9800001
1.2663287 0.66020834 1.9700001
1.2672458 0.65786219 1.9620001
1.2681295 0.65551889 1.9540001
1.2676759 0.65250707 1.9440001
1.2586592 0.64513153 1.9210001
1.2514908 0.6387614 1.9010001
1.2521518 0.63642406 1.8930001
1.2547736 0.63509858 1.8880001
1.2560457 0.63310385 1.881
1.2519242 0.62841821 1.8660001
1.2483999 0.62406963 1.8520001
1.2502226 0.62241876 1.8460001
1.2527058 0.62110889 1.8410001
1.2469721 0.6157521 1.8240001
1.2418349 0.61073208 1.8080001
1.2359238 0.60537344 1.7910001
1.2368551 0.603396 1.784
1.2377605 0.60142171 1.7770001
1.2365407 0.59843469 1.7670001
0 0 0
0 0 0
-2.1286633 0.99349195 2.9440002
-2.1188531 0.99276018 2.9440002
-2.1076465 0.99136603 2.9420002
-2.0993421 0.9913314 2.9440002
-2.0924792 0.99197972 2.9480002
-2.0884507 0.99398237 2.9560001
-2.082998 0.99532032 2.9620001
-2.0838397 0.99968857 2.9770002
-2.0769529 1.0003693 2.9810002
-2.0679927 1.0000528 2.9820001
-2.0507751 0.99572438 2.9710002
-2.0405302 0.99476027 2.97
-2.0337422 0.99548036 2.9740002
-2.0317233 0.9985503 2.9850001
-2.0255997 0.99961978 2.9900002
-2.0214968 1.0016992 2.9980001
-2.0099897 1.0001118 2.9950001
-2.006546 1.0025399 3.0040002
-2.0017438 1.0043068 3.0110002
-1.9995722 1.0074136 3.0220001
-1.9868221 1.0051948 3.0170002
-1.9734747 1.0026536 3.0110002
-1.9614956 1.000789 3.0070002
-1.9508655 0.99959987 3.0050001
-1.9357502 0.99609262 2.9960001
-1.9316469 0.99824601 3.0040002
-1.9217592 0.99741578 3.0030003
-1.9144491 0.99792194 3.006
-1.9052426 0.99743974 3.006
-1.8941671 0.99597067 3.0030003
-1.8837605 0.99484175 3.0010002
-1.8702646 0.99206436 2.9940002
-1.8667796 0.994596 3.0030003
-1.8607868 0.99580812 3.0080001
-1.8566318 0.99801898 3.016
-1.8463237 0.99692732 3.0140002
-1.8366578 0.9961741 3.0130002
-1.8258047 0.99476713 3.0100002
-1.8180071 0.99501985 3.0120001
-1.807214 0.99362785 3.0090001
-1.7952626 0.99158329 3.0040002
-1.7815757 0.98855686 2.9960001
-1.7726878 0.98817772 2.9960001
-1.7714715 0.99209142 3.0090001
-1.7655098 0.99337161 3.0140002
-1.7531252 0.9910329 3.0080001
-1.7402128 0.9883725 3.0010002
-1.729666 0.98703688 2.9980001
-1.7208755 0.98669541 2.9980001
-1.7069612 0.98339885 2.9890001
-1.6959561 0.98175466 2.9850001
-1.6855549 0.98044586 2.9820001
-1.6779984 0.9807871 2.9840002
-1.6698853 0.9808048 2.9850001
-1.6606683 0.98017097 2.9840002
-1.6553465 0.98184156 2.9900002
-1.6494535 0.98318791 2.9950001
-1.6364237 0.98027265 2.9870002
-1.6218187 0.97637975 2.9760001
-1.6159638 0.97774208 2.9810002
-1.6106322 0.97943646 2.9870002
-1.6025974 0.97949588 2.9880002
-1.5919021 0.97792143 2.9840002
-1.5817726 0.97668022 2.9810002
-1.5732558 0.97642714 2.9810002
-1.5673753 0.97781622 2.9860001
-1.5552136 0.97528058 2.9790001
-1.5384299 0.96980494 2.9630001
-1.5263959 0.96728152 2.9560001
-1.5154396 0.9654181 2.9510002
-1.5096296 0.96683037 2.9560001
-1.4961835 0.96334147 2.9460001
-1.4838146 0.96051234 2.9380002
-1.4704963 0.95703465 2.9280002
-1.4637367 0.95781094 2.9310002
-1.4584594 0.95957088 2.937
-1.4516766 0.96035433 2.9400001
-1.4439044 0.9604882 2.9410002
-1.4371121 0.96127909 2.9440002
-1.4298264 0.96174681 2.9460001
-1.4215732 0.96156543 2.9460001
-1.4147677 0.96236694 2.9490001
-1.4089081 0.96382439 2.9540002
-1.4044513 0.96626371 2.9620001
-1.3971298 0.96674877 2.9640002
-1.3888679 0.96658492 2.9640002
-1.3810796 0.9667508 2.9650002
-1.3742194 0.96757215 2.9680002
-1.3664297 0.96774477 2.9690001
-1.3581843 0.96759468 2.9690001
-1.3494915 0.96712226 2.9680002
-1.3421669 0.96763068 2.97
-1.3348385 0.96814233 2.9720001
-1.3270591 0.96833116 2.973
-1.3179502 0.96754622 2.9710002
-1.3084179 0.96643895 2.9680002
-1.301537 0.96728861 2.9710002
-1.2929045 0.96683872 2.97
-1.286014 0.96769416 2.973
-1.2773935 0.96725047 2.9720001
-1.2675033 0.9658336 2.9680002
-1.2576407 0.96441978 2.9640002
-1.2482272 0.96333444 2.9610002
-1.2430238 0.96550536 2.9680002
-1.2348746 0.96540147 2.9680002
-1.2287973 0.96692652 2.973
-1.2198238 0.96617776 2.9710002
-1.213721 0.96770763 2.9760001
-1.205165 0.96728915 2.9750001
-1.1970216 0.96719837 2.9750001
-1.1876838 0.96613491 2.9720001
-1.1779703 0.96474904 2.9680002
-1.168677 0.96369094 2.9650002
-1.1621444 0.96491033 2.9690001
-1.154428 0.96515685 2.97
-1.1463244 0.9650808 2.97
-1.138608 0.96533209 2.9710002
-1.1312703 0.96591026 2.973
-1.1231701 0.965841 2.973
-1.1143235 0.96512425 2.9710002
-1.1051189 0.9640848 2.9680002
-1.0977821 0.96467155 2.97
-1.0904382 0.96526051 2.9720001
-1.0827223 0.96552664 2.973
-1.0746427 0.96546984 2.973
-1.0651313 0.96411628 2.9690001
-1.0552887 0.96244001 2.9640002
-1.046536 0.9617399 2.9620001
-1.0384983 0.96169108 2.9620001
-1.0308111 0.96196866 2.9630001
-1.0227762 0.96192354 2.9630001
-1.0147439 0.96188009 2.9630001
-1.0084131 0.96346164 2.9680002
-1.0010462 0.96407074 2.97
-0.99400532 0.96500605 2.973
-0.98595554 0.96496934 2.973
-0.97725046 0.96428514 2.9710002
-0.969863 0.96490061 2.973
-0.96149629 0.96454406 2.9720001
-0.95281619 0.96386451 2.97
-0.94319475 0.96221304 2.9650002
-0.93517911 0.96218556 2.9650002
-0.92747796 0.96248406 2.9660001
-0.91946322 0.96245933 2.9660001
-0.91083568 0.96178716 2.9640002
-0.90343893 0.96241415 2.9660001
-0.89542913 0.96239358 2.9660001
-0.88801938 0.96302325 2.9680002
-0.88030356 0.96332955 2.9690001
-0.87229019 0.96331275 2.9690001
-0.86340475 0.96232378 2.9660001
-0.85569054 0.96263379 2.9670002
-0.84768635 0.96262044 2.9670002
-0.83996642 0.96293271 2.9680002
-0.83140117 0.96227264 2.9660001
-0.82340324 0.96226257 2.9660001
-0.815956 0.96290243 2.9680002
-0.80877137 0.96386772 2.9710002
-0.80049342 0.96353638 2.97
-0.79195493 0.96288145 2.9680002
-0.78316379 0.9619031 2.9650002
-0.77491266 0.96157449 2.9640002
-0.7666676 0.96124667 2.9630001
-0.75842869 0.96091986 2.9620001
-0.75044918 0.96091825 2.9620001
-0.74171829 0.95994413 2.9590001
-0.73424423 0.96059299 2.9610002
-0.72626925 0.96059358 2.9610002
-0.71877998 0.96124387 2.9630001
-0.71056086 0.96092159 2.9620001
-0.70258468 0.96092451 2.9620001
-0.69437456 0.96060365 2.9610002
-0.68593824 0.95995885 2.9590001
-0.67682582 0.95834154 2.9540002
-0.66864634 0.95802253 2.9530001
-0.65957767 0.9564063 2.9480002
-0.65031505 0.95446622 2.9420002
-0.6408667 0.95220226 2.9350002
-0.63102484 0.9492898 2.9260001
-0.62293553 0.9489733 2.9250002
-0.61548245 0.9496305 2.927
-0.60864156 0.95126152 2.9320002
-0.60074943 0.95127082 2.9320002
-0.592453 0.95063156 2.9300001
-0.58476591 0.95096624 2.9310002
-0.57667983 0.95065212 2.9300001
-0.56918162 0.95131177 2.9320002
-0.56186408 0.95229626 2.9350002
-0.5543415 0.95295656 2.937
-0.5468083 0.95361722 2.9390001
-0.53816402 0.95233119 2.9350002
-0.52990264 0.95169455 2.9330001
-0.52129591 0.95040905 2.9290001
-0.51323658 0.95009714 2.9280002
-0.50535506 0.95010996 2.9280002
-0.49713352 0.94947392 2.9260001
-0.48908994 0.94916254 2.9250002
-0.48138064 0.94950038 2.9260001
-0.47382757 0.95016277 2.9280002
-0.46626356 0.95082527 2.9300001
-0.45790645 0.94986534 2.927
-0.45048773 0.95085251 2.9300001
-0.44275066 0.95119095 2.9310002
-0.4347111 0.95088011 2.9300001
-0.42594847 0.94894677 2.924
-0.41778985 0.94831145 2.9220002
-0.41020283 0.94897437 2.924
-0.40274245 0.9499619 2.927
-0.3947261 0.94965106 2.9260001
-0.38631827 0.9483667 2.9220002
-0.37832019 0.94805574 2.9210002
-0.37032732 0.94774479 2.9200001
-0.36271194 0.94840747 2.9220002
-0.35459977 0.94777173 2.9200001
-0.34673563 0.94778496 2.9200001
-0.33840701 0.94649988 2.9160001
-0.33055308 0.94651288 2.9160001
-0.32269889 0.94652587 2.9160001
-0.31506041 0.94718784 2.9180002
-0.30720031 0.94720036 2.9180002
-0.29944256 0.94753742 2.9190001
-0.29157925 0.9475497 2.9190001
-0.28400722 0.94853556 2.9220002
-0.27613536 0.94854748 2.9220002
-0.26835492 0.94888365 2.9230001
-0.26039073 0.94857055 2.9220002
-0.25217235 0.94728309 2.9180002
-0.24431017 0.94729406 2.9180002
-0.23612362 0.946006 2.914
-0.22866344 0.94763964 2.9190001
-0.2208735 0.94797432 2.9200001
-0.21336976 0.94960755 2.9250002
-0.20527682 0.94864309 2.9220002
-0.19740246 0.94865233 2.9220002
-0.18933333 0.94768739 2.9190001
-0.18152881 0.94802064 2.9200001
-0.17377819 0.94867837 2.9220002
-0.16590303 0.9486863 2.9220002
-0.15808177 0.9490186 2.9230001
-0.15020354 0.94902593 2.9230001
-0.14242254 0.94968224 2.9250002
-0.13453861 0.94968897 2.9250002
-0.12648129 0.94839662 2.9210002
-0.11856719 0.94807774 2.9200001
-0.11073419 0.94840801 2.9210002
-0.10286044 0.94841325 2.9210002
-0.094954044 0.9480933 2.9200001
-0.087112591 0.94842255 2.9210002
-0.079319879 0.94940078 2.924
-0.071510896 0.95037848 2.927
-0.063555233 0.9494077 2.924
-0.05561569 0.94843674 2.9210002
-0.047643207 0.94649106 2.9150002
-0.039757602 0.94584382 2.9130001
-0.031904638 0.94584566 2.9130001
-0.024076408 0.94682109 2.9160001
-0.016237533 0.94812089 2.9200001
-0.0083598811 0.94747216 2.9180002
-0.00049300131 0.946823 2.9160001
0.0073706754 0.94714737 2.9170001
0.015239734 0.94747162 2.9180002
0.02314584 0.94909418 2.9230001
0.030993965 0.94811869 2.9200001
0.038825866 0.94714278 2.9170001
0.04660954 0.94551724 2.9120002
0.054478407 0.94583952 2.9130001
0.062352601 0.94616121 2.914
0.070280291 0.94713211 2.9170001
0.07822407 0.94810241 2.9200001
0.086124972 0.94842309 2.9210002
0.09393461 0.94776934 2.9190001
0.10183796 0.94808918 2.9200001
0.10974661 0.94840872 2.9210002
0.11766052 0.94872791 2.9220002
0.12545076 0.94807249 2.9200001
0.13318445 0.94709229 2.9170001
0.14075674 0.94513768 2.9110003
0.14850071 0.94448131 2.9090002
0.15650246 0.9454481 2.9120002
0.16418155 0.94446653 2.9090002
0.17154862 0.94186121 2.901
0.17868687 0.93828171 2.8900001
0.18615279 0.93664986 2.8850002
0.19365878 0.93534237 2.881
0.20100319 0.93338543 2.8750002
0.20846026 0.93207747 2.8710001
0.21454005 0.92492551 2.8490002
0 0 0
0 0 0
0 0 0
0 0 0
0 0 0
0 0 0
0 0 0
0 0 0
0 0 0
0 0 0
0 0 0
0 0 0
0 0 0
0 0 0
0 0 0
0 0 0
0 0 0
0 0 0
0 0 0
0 0 0
0 0 0
0 0 0
0.072197668 0.17071433 0.52600002
0.076692887 0.17785189 0.54800004
0.078881614 0.17947201 0.55300003
0.081097208 0.18109207 0.55800003
0.083783798 0.18368573 0.56600004
0.085759774 0.18465662 0.56900001
0.087291658 0.18465397 0.56900001
0.088355191 0.18367773 0.56600004
0.090037718 0.18399961 0.56700003
0.091241114 0.18334797 0.565
0.092762083 0.18334539 0.565
0.093949273 0.18269382 0.56300002
0.095973492 0.1836648 0.56600004
0.097152539 0.18301328 0.56400001
0.098670714 0.1830108 0.56400001
0.099655949 0.18203495 0.56100005
0.10134631 0.18235703 0.56200004
0.10285905 0.18235469 0.56200004
0.10437177 0.18235241 0.56200004
0.10569608 0.1820257 0.56100005
0.10701497 0.18169902 0.56
0.10832851 0.18137246 0.55900002
0.10983314 0.18137039 0.55900002
0.11113859 0.18104395 0.55800003
0.11264054 0.18104202 0.55800003
0.11393796 0.18071574 0.55700004
0.11543725 0.18071395 0.55700004
0.11693656 0.18071227 0.55700004
0.11864853 0.1810351 0.55800003
0.11993527 0.18070914 0.55700004
0.12143468 0.18070772 0.55700004
0.12315483 0.18103081 0.55800003
0.1251038 0.18167841 0.56
0.12638533 0.18135285 0.55900002
0.1281191 0.18167624 0.56
0.12985831 0.18199976 0.56100005
0.1323055 0.18329661 0.565
0.13501118 0.18491805 0.57000005
0.13942072 0.18881045 0.58200002
0 0 0
0 0 0
0 0 0
0 0 0
0 0 0
0 0 0
0 0 0
0 0 0
0 0 0
0 0 0
0 0 0
0 0 0
0 0 0
0.7774815 0.90970367 2.8040001
0.780563 0.90452212 2.7880001
0.78808182 0.90453237 2.7880001
0.79560184 0.90454376 2.7880001
0.80369914 0.90520513 2.7900002
0.81035453 0.90424514 2.7870002
0.81816876 0.90458411 2.7880001
0.82658195 0.90557313 2.7910001
0.83501273 0.90656346 2.7940001
0.8419534 0.90593261 2.7920001
0.84827596 0.90465385 2.7880001
0.85549945 0.90434992 2.7870002
0.86302859 0.9043715 2.7870002
0.87087184 0.90471905 2.7880001
0.87746179 0.90376979 2.7850001
0.88499057 0.90379542 2.7850001
0.89155966 0.90284878 2.7820001
0.89876068 0.90255255 2.7810001
0.90465468 0.90095949 2.776
0.90920943 0.89806968 2.7670002
0 0 0
0 0 0
0.18586551 0.17917991 0.55200005
0.18532437 0.17723963 0.546
0.18440907 0.17497489 0.53900003
0.18276656 0.17206094 0.53000003
0.18246599 0.17044568 0.52500004
0.18248901 0.16915527 0.52100003
0.18319678 0.16851445 0.51900005
0.18318281 0.16722445 0.51500005
0.18243079 0.1652852 0.509
0 0 0
0 0 0
0 0 0
0 0 0
0 0 0
0 0 0
0 0 0
1.0363514 0.88565338 2.7260001
1.0533541 0.89384162 2.7510002
1.0639411 0.89650911 2.7590001
1.0718571 0.89690453 2.7600002
1.078609 0.89632708 2.7580001
1.0849599 0.89542663 2.7550001
1.0916951 0.89485347 2.753
1.0996211 0.89525759 2.7540002
1.1075568 0.89566416 2.7550001
1.1142879 0.89509761 2.753
1.1214199 0.89485854 2.7520001
1.1285511 0.89462179 2.7510002
1.1356813 0.89438748 2.7500002
1.1432265 0.89448082 2.7500002
1.1503577 0.89425129 2.7490001
1.1587522 0.89500034 2.7510002
1.1654668 0.8944506 2.7490001
1.1713222 0.89325273 2.7450001
1.1780196 0.89270788 2.743
1.1847116 0.89216566 2.7410002
1.1935728 0.8932538 2.7440002
1.2002674 0.89271694 2.7420001
1.2078378 0.89283407 2.7420001
1.214084 0.89197701 2.7390001
1.221212 0.89177412 2.7380002
1.2287892 0.89189976 2.7380002
1.2354696 0.89137673 2.7360001
1.2435085 0.89183432 2.7370002
1.2497307 0.89099139 2.7340002
1.2573225 0.89112914 2.7340002
1.263533 0.89029193 2.7310002
1.2701995 0.88978374 2.7290001
1.2782663 0.89025688 2.73
1.285875 0.89040726 2.73
1.2930174 0.89023489 2.7290001
1.299685 0.88973939 2.7270002
1.306349 0.88924718 2.7250001
1.3130097 0.88875812 2.723
1.3191819 0.88794595 2.72
1.3243703 0.88648397 2.7150002
1.3305198 0.88567799 2.7120001
1.3366609 0.88487548 2.7090001
1.3437862 0.88472962 2.7080002
1.3494176 0.88360703 2.7040002
1.3540311 0.88183397 2.6980002
1.3611436 0.88169849 2.697
1.3687671 0.88189375 2.697
1.3743588 0.88078475 2.6930001
1.3783977 0.87869775 2.6860001
1.3808588 0.87563205 2.6760001
1.3837917 0.87289613 2.6670001
1.3830315 0.86787134 2.651
1.382715 0.86317557 2.6360002
1.3828508 0.85880905 2.6220002
1.3839775 0.85509962 2.6100001
1.3850462 0.85139239 2.598
1.3849849 0.84703177 2.5840001
1.385393 0.84300095 2.5710001
1.3846544 0.83831614 2.5560002
1.3827512 0.83297682 2.539
1.379119 0.8266542 2.5190001
1.3770342 0.82131708 2.5020001
1.3726497 0.8146677 2.4810002
1.3698237 0.80900389 2.4630001
1.3669052 0.80334121 2.4450002
1.3655798 0.79866523 2.4300001
1.3647445 0.79431957 2.4160001
1.358162 0.78668666 2.3920002
1.35031 0.77839524 2.3660002
1.3463341 0.77240646 2.3470001
1.3439891 0.76740569 2.3310001
1.3409834 0.76207668 2.3140001
1.3378907 0.7567485 2.2970002
1.336467 0.7524097 2.283
1.3320322 0.74642402 2.2640002
1.3221765 0.73747009 2.2360001
1.3157337 0.73049361 2.214
1.3157437 0.72714728 2.2030001
1.3145012 0.72314256 2.1900001
1.3089728 0.71682703 2.1700001
1.3057634 0.71183294 2.154
1.2975988 0.70419478 2.1300001
1.2960386 0.70019317 2.1170001
1.2937994 0.695862 2.1030002
1.2933447 0.69252503 2.092
1.2915958 0.68852764 2.079
1.2922804 0.685857 2.0700002
1.2853974 0.67921096 2.049
1.2840753 0.67554855 2.0370002
1.2750939 0.66790605 2.013
1.2717098 0.66324896 1.9980001
1.265691 0.65726388 1.9790001
1.2711388 0.65725905 1.978
1.2707849 0.65426725 1.9680001
1.2677901 0.64994717 1.9540001
1.2627692 0.6446293 1.937
1.2609345 0.64097595 1.9250001
1.2544347 0.63499182 1.9060001
1.2577522 0.63400656 1.9020001
1.2510957 0.62802273 1.8830001
1.2543502 0.62704313 1.8790001
1.2549144 0.62473226 1.8710001
1.2540982 0.62175602 1.8610001
1.2512053 0.61777884 1.848
1.2475679 0.61346799 1.8340001
1.2472764 0.61083084 1.825
1.2435131 0.60652167 1.8110001
1.2472671 0.60589904 1.8080001
1.243397 0.6015926 1.794
1.248508 0.60164857 1.7930001
1.2368425 0.59365183 1.7680001
0 0 0
0 0 0
-2.1329904 0.98724622 2.9510002
-2.1246073 0.9871915 2.9530001
-2.1105185 0.98447478 2.947
-2.1007822 0.98377514 2.947
-2.09321 0.98408747 2.95
-2.0905969 0.98674273 2.96
-2.0886557 0.98973751 2.9710002
-2.0880756 0.99340379 2.9840002
-2.083962 0.99541146 2.9920001
-2.0708168 0.9931041 2.9870002
-2.0556655 0.98981214 2.9790001
-2.0460923 0.98919022 2.9790001
-2.0386009 0.9895739 2.9820001
-2.0365639 0.99261916 2.993
-2.0351646 0.99600124 3.0050001
-2.0310218 0.99806327 3.0130002
-2.0194776 0.99648994 3.0100002
-2.0099843 0.99591976 3.0100002
-2.0051711 0.99767363 3.0170002
-1.99968 0.99910349 3.0230002
-1.9928622 0.99987954 3.0270002
