# .PCD v0.7 - Point Cloud Data file format
VERSION 0.7
FIELDS x y z
SIZE 4 4 4
TYPE F F F
COUNT 1 1 1
WIDTH 1486
HEIGHT 1
VIEWPOINT 0 0 0 1 0 0 0
POINTS 1486
DATA ascii
0.32255745 0.22784139 0.52900004
0.3230491 0.22672068 0.53000003
0.32354197 0.22559637 0.53100002
0.32342696 0.22404647 0.53100002
0.32270476 0.22207974 0.53000003
0.32076722 0.21928874 0.52700001
0.31944096 0.21693049 0.52500004
0.31933364 0.21540651 0.52500004
0.31922778 0.2138845 0.52500004
0.31851566 0.21195996 0.52400005
0.31780535 0.21004312 0.523
0.3267709 0.15657263 0.54300004
0.32889813 0.15011908 0.54700005
0.32944599 0.14887208 0.54800004
0.33059555 0.14788927 0.55000001
0.33234662 0.14716238 0.55300003
0.33289617 0.14589299 0.55400002
0.33344638 0.14461888 0.55500001
0.33339652 0.14308225 0.55500001
0.33575001 0.14256658 0.55900002
0.33630195 0.14127274 0.56
0.33685458 0.13997418 0.56100005
0.33680746 0.13842408 0.56100005
0.33056489 0.27228832 0.53900003
0.33039653 0.27064142 0.53900003
0.32900518 0.26799983 0.537
0.32945448 0.26686192 0.53800005
0.32990545 0.2657212 0.53900003
0.33158165 0.26555765 0.54200006
0.33020085 0.26294446 0.54000002
0.3282122 0.2598626 0.537
0.32622749 0.25680199 0.53400004
0.32607844 0.25519615 0.53400004
0.32855052 0.25113168 0.53900003
0.32901961 0.24998827 0.54000002
0.32583591 0.2460819 0.53500003
0.32570064 0.24449295 0.53500003
0.32495874 0.24245262 0.53400004
0.32482746 0.24087188 0.53400004
0.32348189 0.23839743 0.53200001
0.32274699 0.23638251 0.53100002
0.32262191 0.23481816 0.53100002
0.32189128 0.23281696 0.53000003
0.32055566 0.23038763 0.528
0.31982961 0.22840582 0.52700001
0.31971234 0.22686262 0.52700001
0.32080963 0.22617678 0.52900004
0.32190767 0.22548144 0.53100002
0.32179451 0.22393321 0.53100002
0.32107711 0.22196829 0.53000003
0.31915051 0.21917951 0.52700001
0.31904292 0.21764921 0.52700001
0.31833166 0.21571085 0.52600002
0.31883228 0.21459466 0.52700001
0.31812447 0.21266602 0.52600002
0.31802306 0.2111465 0.52600002
0.32902968 0.14936268 0.55000001
0.33017421 0.14837502 0.55200005
0.33191717 0.14764313 0.55500001
0.33246458 0.14636897 0.55600005
0.33361045 0.14535053 0.55800003
0.33356124 0.14380641 0.55800003
0.33590364 0.14328291 0.56200004
0.33705091 0.14223368 0.56400001
0.34040543 0.13587971 0.57000005
0.3306829 0.27363464 0.54200006
0.3305161 0.27198097 0.54200006
0.32852313 0.26883435 0.53900003
0.32897106 0.26769233 0.54000002
0.32820287 0.26556215 0.53900003
0.32926333 0.26491022 0.54100001
0.32849982 0.26278952 0.54000002
0.32773906 0.26067796 0.53900003
0.3257654 0.25761425 0.53600001
0.32622552 0.25648209 0.537
0.32607996 0.25487232 0.537
0.32640162 0.25213006 0.53800005
0.32626179 0.25052589 0.53800005
0.32673016 0.24938717 0.53900003
0.32598811 0.24732585 0.53800005
0.32585409 0.24572988 0.53800005
0.32511654 0.24368277 0.537
0.32317102 0.24074253 0.53400004
0.32243863 0.2387183 0.53300005
0.32170847 0.23670243 0.53200001
0.32279408 0.23602088 0.53400004
0.32085919 0.23313473 0.53100002
0.31953147 0.23070468 0.52900004
0.31881008 0.22872181 0.528
0.31990159 0.22803789 0.53000003
0.31978714 0.2264898 0.53000003
0.31967428 0.22494392 0.53000003
0.31956309 0.22340019 0.53000003
0.31945345 0.22185858 0.53000003
0.31874287 0.21990339 0.52900004
0.31863657 0.21836881 0.52900004
0.31672534 0.21560659 0.52600002
0.31722456 0.21449168 0.52700001
0.31591967 0.2121606 0.52500004
0.31642163 0.21104667 0.52600002
0.32304204 0.17250121 0.54100001
0.32806131 0.15111047 0.551
0.32860485 0.14985391 0.55200005
0.33033937 0.14913003 0.55500001
0.33207425 0.14839041 0.55800003
0.33321437 0.14737181 0.56
0.334355 0.14634296 0.56200004
0.3337115 0.14453097 0.56100005
0.33544806 0.14374475 0.56400001
0.33540082 0.14218643 0.56400001
0.33654365 0.14112757 0.56600004
0.33942497 0.13922276 0.57100004
0.32957283 0.27397248 0.54300004
0.33001485 0.27281955 0.54400003
0.32863954 0.27016857 0.54200006
0.32969192 0.26951483 0.54400003
0.32892802 0.26737502 0.54300004
0.32937789 0.26622328 0.54400003
0.32801381 0.26360959 0.54200006
0.32604811 0.26052773 0.53900003
0.32469073 0.2579473 0.537
0.32514969 0.25681394 0.53800005
0.3256101 0.25567755 0.53900003
0.32486439 0.25359535 0.53800005
0.32412115 0.25152194 0.537
0.3239837 0.24992272 0.537
0.32384822 0.24832624 0.537
0.32431746 0.24719195 0.53800005
0.32358292 0.24514133 0.537
0.32405543 0.24400641 0.53800005
0.3221209 0.24106577 0.53500003
0.32139334 0.23904061 0.53400004
0.32066801 0.23702382 0.53300005
0.32114765 0.23589884 0.53400004
0.32102746 0.23433156 0.53400004
0.320308 0.23233077 0.53300005
0.32019138 0.23077105 0.53300005
0.32007641 0.22921364 0.53300005
0.31996313 0.22765845 0.53300005
0.3186512 0.22525698 0.53100002
0.3185415 0.22371194 0.53100002
0.31903306 0.22258739 0.53200001
0.31832683 0.22062811 0.53100002
0.31762248 0.21867669 0.53000003
0.3157219 0.21591365 0.52700001
0.31621954 0.21479714 0.528
0.31552079 0.21286893 0.52700001
0.31602094 0.21175046 0.528
0.31592381 0.21022995 0.528
0.31522992 0.20831594 0.52700001
0.31573376 0.20719431 0.528
0.32269254 0.17459507 0.54300004
0.32262689 0.1730732 0.54300004
0.32822245 0.1518812 0.55400002
0.32935607 0.15088844 0.55600005
0.32989788 0.14961682 0.55700004
0.33221689 0.14913808 0.56100005
0.3339439 0.14837487 0.56400001
0.3344872 0.1470753 0.565
0.33443919 0.14551345 0.565
0.33498389 0.14420718 0.56600004
0.3366667 0.14182959 0.56900001
0.32906502 0.27481642 0.54500002
0.32890224 0.27315822 0.54500002
0.32693216 0.27000889 0.54200006
0.32737768 0.26886165 0.54300004
0.32722223 0.26721948 0.54300004
0.32706892 0.26558053 0.54300004
0.32571366 0.26297256 0.54100001
0.32496342 0.26086283 0.54000002
0.3242158 0.25876209 0.53900003
0.32407203 0.25714746 0.53900003
0.32332927 0.25506166 0.53800005
0.32379046 0.25392687 0.53900003
0.32365268 0.25232086 0.53900003
0.32351682 0.25071761 0.53900003
0.3227829 0.24865492 0.53800005
0.32205138 0.24660084 0.537
0.32132223 0.24455531 0.53600001
0.32179382 0.24342492 0.537
0.3198708 0.24048974 0.53400004
0.31974724 0.23891696 0.53400004
0.31902689 0.23690218 0.53300005
0.32010365 0.23622023 0.53500003
0.31998506 0.23465173 0.53500003
0.31986815 0.23308556 0.53500003
0.32035059 0.23195443 0.53600001
0.32023677 0.23038988 0.53600001
0.31893015 0.22797373 0.53400004
0.31762588 0.22557138 0.53200001
0.31692085 0.2236039 0.53100002
0.31741109 0.22248068 0.53200001
0.31730601 0.22093844 0.53200001
0.31720242 0.21939823 0.53200001
0.31590828 0.217041 0.53000003
0.31580803 0.21551047 0.53000003
0.31511354 0.21357813 0.52900004
0.31501639 0.21205428 0.52900004
0.31551594 0.21093027 0.53000003
0.3154214 0.2094072 0.53000003
0.31592318 0.20827815 0.53100002
0.32292506 0.17702411 0.546
0.32226783 0.17517228 0.54500002
0.3222031 0.17364584 0.54500002
0.32213932 0.17212051 0.54500002
0.3284204 0.15419619 0.55700004
0.32895863 0.15292639 0.55800003
0.33008698 0.15192319 0.56
0.33121574 0.15090975 0.56200004
0.33234501 0.1498861 0.56400001
0.33347479 0.1488522 0.56600004
0.33396861 0.14598122 0.56700003
0.33736414 0.14278118 0.57300001
0.32674742 0.27414975 0.54400003
0.32718772 0.27299777 0.54500002
0.32582945 0.27034944 0.54300004
0.32507437 0.26821142 0.54200006
0.32492152 0.26657444 0.54200006
0.32536995 0.2654295 0.54300004
0.32462215 0.26330999 0.54200006
0.32387698 0.26119959 0.54100001
0.32253599 0.25861838 0.53900003
0.32179624 0.25652894 0.53800005
0.32165688 0.25492221 0.53800005
0.32271469 0.25426 0.54000002
0.32317606 0.25312081 0.54100001
0.3230418 0.25151354 0.54100001
0.32111877 0.24852319 0.53800005
0.31979573 0.24601223 0.53600001
0.31966823 0.24442779 0.53600001
0.32073492 0.24375205 0.53800005
0.32001463 0.24171662 0.537
0.31870088 0.2392424 0.53500003
0.31858069 0.23767085 0.53500003
0.31846225 0.2361017 0.53500003
0.31894052 0.23497328 0.53600001
0.31823042 0.2329704 0.53500003
0.31871155 0.2318407 0.53600001
0.31741077 0.22941856 0.53400004
0.31730074 0.22786365 0.53400004
0.31600428 0.22546326 0.53200001
0.31708544 0.22476026 0.53400004
0.31698009 0.22321169 0.53400004
0.31687626 0.22166517 0.53400004
0.31618077 0.21970846 0.53300005
0.31548703 0.21775946 0.53200001
0.3147952 0.2158182 0.53100002
0.31529048 0.2146917 0.53200001
0.31460187 0.21275996 0.53100002
0.31441408 0.20970903 0.53100002
0.32131094 0.17695829 0.546
0.32124618 0.1754289 0.546
0.32177073 0.17421915 0.54700005
0.32737842 0.1544217 0.55800003
0.32850122 0.15342382 0.56
0.33079749 0.15295815 0.56400001
0.33133462 0.15166587 0.565
0.33245873 0.15063456 0.56700003
0.3369143 0.14482039 0.57500005
0.32503828 0.27398971 0.54400003
0.32488057 0.27233908 0.54400003
0.32412818 0.27019417 0.54300004
0.32397512 0.26855317 0.54300004
0.32322788 0.26642379 0.54200006
0.3218872 0.26381502 0.54000002
0.32233718 0.262678 0.54100001
0.32278869 0.26153803 0.54200006
0.32205108 0.25943592 0.54100001
0.32072103 0.25686619 0.53900003
0.31998873 0.25478485 0.53800005
0.32104245 0.2541241 0.54000002
0.32090852 0.25251895 0.54000002
0.32137054 0.25138122 0.54100001
0.32064638 0.24931686 0.54000002
0.31992453 0.24726105 0.53900003
0.31920499 0.24521375 0.53800005
0.31848767 0.24317491 0.537
0.3177726 0.24114445 0.53600001
0.31646711 0.23867537 0.53400004
0.31753382 0.23799652 0.53600001
0.31800917 0.23686719 0.537
0.31730181 0.23485805 0.53600001
0.31659654 0.23285703 0.53500003
0.31707641 0.23172873 0.53600001
0.31637481 0.22973803 0.53500003
0.31567514 0.22775529 0.53400004
0.31556842 0.22620408 0.53400004
0.31605396 0.22507568 0.53500003
0.31654066 0.22394356 0.53600001
0.31584775 0.22197783 0.53500003
0.31574684 0.22043191 0.53500003
0.31505743 0.21847883 0.53400004
0.31495962 0.21693964 0.53400004
0.31427363 0.21499901 0.53300005
0.31417885 0.21346645 0.53300005
0.31674948 0.1989363 0.53900003
0.31725675 0.19777286 0.54000002
0.31835234 0.19696863 0.54200006
0.32087108 0.17754158 0.54800004
0.32139263 0.17632875 0.54900002
0.32191491 0.17511147 0.55000001
0.32701927 0.15802824 0.56
0.32638407 0.15619658 0.55900002
0.32750124 0.15520127 0.56100005
0.32803515 0.15392186 0.56200004
0.33032051 0.1534511 0.56600004
0.33085546 0.15215403 0.56700003
0.33255792 0.15138341 0.57000005
0.33309397 0.15007135 0.57100004
0.33304733 0.14849451 0.57100004
0.32333374 0.27383205 0.54400003
0.32258427 0.27168331 0.54300004
0.32243136 0.2700412 0.54300004
0.3228741 0.26889664 0.54400003
0.31961352 0.26318097 0.53900003
0.32006285 0.26204872 0.54000002
0.32051364 0.26091352 0.54100001
0.32096592 0.25977525 0.54200006
0.32023582 0.25768131 0.54100001
0.32069159 0.25654292 0.54200006
0.3205573 0.25493097 0.54200006
0.31865135 0.25191963 0.53900003
0.31852156 0.25032207 0.53900003
0.31898433 0.24918863 0.54000002
0.31885803 0.24759339 0.54000002
0.31814325 0.24554516 0.53900003
0.31684065 0.24305275 0.537
0.31613055 0.24102427 0.53600001
0.31601214 0.23945081 0.53600001
0.31707418 0.23876736 0.53800005
0.3169587 0.23719279 0.53800005
0.31625596 0.23518255 0.537
0.31496656 0.23274541 0.53500003
0.31485662 0.2311864 0.53500003
0.31533656 0.2300588 0.53600001
0.31522956 0.22850123 0.53600001
0.31512412 0.22694577 0.53600001
0.31560791 0.2258129 0.537
0.31726789 0.22551151 0.54000002
0.31657889 0.2235359 0.53900003
0.31530449 0.22115621 0.537
0.31403238 0.21879002 0.53500003
0.31334916 0.21684335 0.53400004
0.31266773 0.21490426 0.53300005
0.31257445 0.21337311 0.53300005
0.31623295 0.19805984 0.54100001
0.31673938 0.19689041 0.54200006
0.32042253 0.17812549 0.55000001
0.3197771 0.17626582 0.54900002
0.3265481 0.15854116 0.56200004
0.32649752 0.1569842 0.56200004
0.32819033 0.15625778 0.565
0.32814115 0.15469424 0.565
0.32983485 0.15394464 0.56800002
0.33036762 0.15264274 0.56900001
0.33206207 0.15186714 0.57200003
0.33259594 0.15055028 0.57300001
0.32104239 0.27317366 0.54300004
0.32029864 0.2710304 0.54200006
0.32132962 0.27038753 0.54400003
0.3217712 0.26924178 0.54500002
0.32221439 0.2680932 0.546
0.3191199 0.26401362 0.54100001
0.31838852 0.26190716 0.54000002
0.31824902 0.26029164 0.54000002
0.31928968 0.25963718 0.54200006
0.31915358 0.2580215 0.54200006
0.31960803 0.25688177 0.54300004
0.31947553 0.25526878 0.54300004
0.3181687 0.2527242 0.54100001
0.31686467 0.25019422 0.53900003
0.31732634 0.24906236 0.54000002
0.31778932 0.24792719 0.54100001
0.31707928 0.24587803 0.54000002
0.31578451 0.2433849 0.53800005
0.31507903 0.24135537 0.537
0.31554878 0.24022722 0.53800005
0.31543347 0.23865198 0.53800005
0.3159059 0.23751971 0.53900003
0.31520775 0.23550843 0.53800005
0.31568304 0.23437488 0.53900003
0.31498852 0.23237389 0.53800005
0.31546652 0.23123893 0.53900003
0.31536064 0.22967419 0.53900003
0.31467137 0.22768836 0.53800005
0.31515339 0.22655098 0.53900003
0.31563652 0.22540988 0.54000002
0.31495211 0.22343595 0.53900003
0.31426954 0.22146975 0.53800005
0.31358874 0.21951121 0.537
0.31349349 0.21796626 0.537
0.31281605 0.21602012 0.53600001
0.31272376 0.21448171 0.53600001
0.31578803 0.19871384 0.54300004
0.31512964 0.19681351 0.54200006
0.32060817 0.18058099 0.55300003
0.32606813 0.15905467 0.56400001
0.32717443 0.15805148 0.56600004
0.32885912 0.15731455 0.56900001
0.32881048 0.15574077 0.56900001
0.32991827 0.1547097 0.57100004
0.33044878 0.15340021 0.57200003
0.33213517 0.15261689 0.57500005
0.33208925 0.15102977 0.57500005
0.33262154 0.14970334 0.57600003
0.33430922 0.14888646 0.57900006
0.31993794 0.27352369 0.54400003
0.31861141 0.27088007 0.54200006
0.31787571 0.26874849 0.54100001
0.31831723 0.26761365 0.54200006
0.31876034 0.26647586 0.54300004
0.31803137 0.26435965 0.54200006
0.31730488 0.26225242 0.54100001
0.31658098 0.26015419 0.54000002
0.31761754 0.25950113 0.54200006
0.31748351 0.25788739 0.54200006
0.31852239 0.25722218 0.54400003
0.31780639 0.25513822 0.54300004
0.31709278 0.25306293 0.54200006
0.31579655 0.25053224 0.54000002
0.31508771 0.24847703 0.53900003
0.31554976 0.24734634 0.54000002
0.315429 0.24575721 0.54000002
0.31531 0.24417058 0.54000002
0.31519267 0.24258637 0.54000002
0.31566054 0.24145086 0.54100001
0.31554633 0.23986849 0.54100001
0.31485075 0.23784798 0.54000002
0.31415722 0.2358356 0.53900003
0.31463096 0.23470053 0.54000002
0.31510586 0.23356186 0.54100001
0.31499967 0.23199071 0.54100001
0.31489506 0.23042171 0.54100001
0.31421009 0.22843178 0.54000002
0.31410867 0.22686982 0.54000002
0.31459022 0.22572711 0.54100001
0.31449154 0.22416627 0.54100001
0.31381318 0.22219594 0.54000002
0.31255567 0.21982467 0.53800005
0.31188095 0.21787249 0.537
0.31178862 0.21633074 0.537
0.31410155 0.19710088 0.54300004
0.31568813 0.19510505 0.546
0.32557946 0.15956874 0.56600004
0.32725582 0.15883982 0.56900001
0.32893249 0.15809517 0.57200003
0.33003446 0.15706111 0.574
0.33113691 0.15601687 0.57600003
0.33166501 0.15469429 0.57700002
0.33276847 0.15363234 0.57900006
0.33272314 0.15203498 0.57900006
0.3344022 0.15121785 0.58200002
0.31883159 0.27387545 0.54500002
0.31809798 0.27173099 0.54400003
0.31678256 0.2690993 0.54200006
0.31722289 0.26796323 0.54300004
0.31766474 0.26682422 0.54400003
0.31752446 0.26519477 0.54400003
0.31680268 0.26308382 0.54300004
0.3160834 0.26098183 0.54200006
0.3159495 0.25936717 0.54200006
0.31581748 0.25775534 0.54200006
0.31626979 0.25661892 0.54300004
0.3167235 0.25547928 0.54400003
0.31601462 0.2534031 0.54300004
0.31472623 0.25087172 0.54100001
0.31402212 0.24881555 0.54000002
0.31506407 0.2481413 0.54200006
0.31552583 0.24700291 0.54300004
0.31598881 0.24586113 0.54400003
0.31529182 0.24381787 0.54300004
0.31517735 0.24222894 0.54300004
0.31332383 0.23931284 0.54000002
0.31263325 0.2372971 0.53900003
0.31252444 0.23572676 0.53900003
0.31357646 0.23502749 0.54100001
0.3140499 0.23388728 0.54200006
0.3139452 0.2323148 0.54200006
0.31326297 0.23031867 0.54100001
0.31316149 0.22875325 0.54100001
0.3124828 0.22676994 0.54000002
0.31238443 0.22521146 0.54000002
0.31228751 0.22365493 0.54000002
0.31219202 0.22210035 0.54000002
0.31151998 0.22013928 0.53900003
0.31200522 0.21899688 0.54000002
0.31191385 0.21744789 0.54000002
0.31522593 0.19574682 0.54800004
0.31572929 0.19455637 0.54900002
0.32403609 0.16265349 0.56600004
0.32398629 0.16108619 0.56600004
0.32565433 0.16036525 0.56900001
0.32617819 0.15907045 0.57000005
0.32841912 0.15859987 0.574
0.32951608 0.15756094 0.57600003
0.33232942 0.15732414 0.58100003
0.33285514 0.15598844 0.58200002
0.33395332 0.15491334 0.58400005
0.33390844 0.15330294 0.58400005
0.31830519 0.27473113 0.54700005
0.31815803 0.27308229 0.54700005
0.3162688 0.26994792 0.54400003
0.31554544 0.26782119 0.54300004
0.31482461 0.2657035 0.54200006
0.31526747 0.26456925 0.54300004
0.31571183 0.26343203 0.54400003
0.31615764 0.26229173 0.54500002
0.31544513 0.26019177 0.54400003
0.31531462 0.25857589 0.54400003
0.31518599 0.25696284 0.54400003
0.31505921 0.25535244 0.54400003
0.31435534 0.25327829 0.54300004
0.31423238 0.25167617 0.54300004
0.31411117 0.25007662 0.54300004
0.31456998 0.24893723 0.54400003
0.31387404 0.24688514 0.54300004
0.31433582 0.24574484 0.54400003
0.31364363 0.24370345 0.54300004
0.31353092 0.24211617 0.54300004
0.31226543 0.23964529 0.54100001
0.31157938 0.23762843 0.54000002
0.31147209 0.23605675 0.54000002
0.31194299 0.23492151 0.54100001
0.31241503 0.23378266 0.54200006
0.31346443 0.23306856 0.54400003
0.31336248 0.23149388 0.54400003
0.31268623 0.22949861 0.54300004
0.31086043 0.22667164 0.54000002
0.31133908 0.22553146 0.54100001
0.31124359 0.22397351 0.54100001
0.31229973 0.22323969 0.54300004
0.31163165 0.22127156 0.54200006
0.31211486 0.22012174 0.54300004
0.31144986 0.21816298 0.54200006
0.31532726 0.19674636 0.551
0.31582856 0.19554844 0.55200005
0.32410374 0.1634656 0.56900001
0.32462418 0.16217536 0.57000005
0.32571465 0.16116217 0.57200003
0.32737494 0.16041775 0.57500005
0.32960486 0.15993384 0.57900006
0.33069646 0.15888172 0.58100003
0.33349589 0.15863149 0.58600003
0.3345882 0.15755063 0.588
0.31719184 0.27508602 0.54800004
0.31762511 0.27393517 0.54900002
0.31748164 0.27228555 0.54900002
0.31618419 0.26965314 0.54700005
0.31546751 0.2675257 0.546
0.31475332 0.26540726 0.54500002
0.31461883 0.26378176 0.54500002
0.31506333 0.26264015 0.546
0.31435567 0.26053935 0.54500002
0.31480345 0.25939748 0.546
0.31352368 0.25683609 0.54400003
0.31397492 0.25569668 0.54500002
0.31269988 0.25315541 0.54300004
0.31373009 0.25248155 0.54500002
0.31303489 0.25041756 0.54400003
0.31464273 0.25019154 0.54700005
0.31337595 0.24767806 0.54500002
0.31326127 0.24608183 0.54500002
0.31314826 0.24448802 0.54500002
0.31246254 0.24245083 0.54400003
0.31120461 0.23997907 0.54200006
0.31109709 0.23840092 0.54200006
0.31099108 0.236825 0.54200006
0.31203377 0.23611932 0.54400003
0.31193051 0.23454194 0.54400003
0.31354836 0.23425144 0.54700005
0.31230143 0.23181887 0.54500002
0.31277522 0.23066729 0.546
0.31038684 0.22741409 0.54200006
0.3102912 0.2258527 0.54200006
0.31019706 0.22429326 0.54200006
0.31124851 0.22355759 0.54400003
0.31115675 0.2219962 0.54400003
0.31163812 0.22084184 0.54500002
0.31097725 0.21887887 0.54400003
0.31146094 0.21772239 0.54500002
0.31128904 0.21460992 0.54500002
0.31534398 0.19618683 0.55400002
0.32322469 0.17001978 0.57000005
0.32317314 0.1684394 0.57000005
0.32312241 0.16685995 0.57000005
0.32420605 0.16586135 0.57200003
0.3252902 0.16485256 0.574
0.32580826 0.16354921 0.57500005
0.32689345 0.16252281 0.57700002
0.32797915 0.16148624 0.57900006
0.33019799 0.16099171 0.583
0.33185074 0.16020258 0.58600003
0.31794983 0.27861059 0.55200005
0.3160764 0.27544245 0.54900002
0.31593302 0.27379176 0.54900002
0.31636694 0.2726399 0.55000001
0.31507745 0.27000701 0.54800004
0.31379095 0.26738909 0.546
0.31308189 0.26527289 0.54500002
0.31352368 0.26413304 0.546
0.31454086 0.26347092 0.54800004
0.31441149 0.26184413 0.54800004
0.314284 0.26022011 0.54800004
0.31301171 0.25765502 0.546
0.31346139 0.25651133 0.54700005
0.31162101 0.25350037 0.54400003
0.31264678 0.25282487 0.546
0.31252864 0.25121999 0.546
0.31412876 0.25098914 0.54900002
0.31344137 0.24892619 0.54800004
0.31275615 0.24687156 0.54700005
0.31150129 0.24437669 0.54500002
0.31139168 0.24278684 0.54500002
0.31071249 0.24075671 0.54400003
0.31060621 0.23917428 0.54400003
0.31050152 0.2375941 0.54400003
0.31211007 0.23731765 0.54700005
0.31200781 0.23573308 0.54700005
0.3130475 0.23500675 0.54900002
0.31180784 0.23257026 0.54700005
0.31227985 0.2314142 0.54800004
0.31047428 0.22857675 0.54500002
0.31037968 0.22700813 0.54500002
0.30971715 0.2250278 0.54400003
0.31133297 0.22469823 0.54700005
0.31124219 0.22312959 0.54700005
0.31115276 0.22156277 0.54700005
0.31049591 0.21959555 0.546
0.31154636 0.21883383 0.54800004
0.31089234 0.21687301 0.54700005
0.31080809 0.21531321 0.54700005
0.309589 0.21297354 0.54500002
0.3106434 0.21219866 0.54700005
0.31056291 0.21064381 0.54700005
0.31161883 0.20985506 0.54900002
0.31541696 0.19717993 0.55700004
0.31478265 0.19526316 0.55600005
0.32167751 0.17313017 0.57000005
0.3227537 0.17215067 0.57200003
0.32326621 0.17086282 0.57300001
0.32321531 0.16927497 0.57300001
0.32372928 0.1679807 0.574
0.32480779 0.16697168 0.57600003
0.32588673 0.16595247 0.57800001
0.3269662 0.16492312 0.58000004
0.32860976 0.16416514 0.583
0.33138078 0.16394907 0.588
0.33358836 0.16343021 0.59200001
0.31682116 0.27896887 0.55300003
0.31438625 0.27529916 0.54900002
0.3148174 0.27414891 0.55000001
0.31353363 0.27150947 0.54800004
0.31396857 0.27036247 0.54900002
0.31269002 0.26774403 0.54700005
0.31198579 0.26562697 0.546
0.3124263 0.26448587 0.54700005
0.31400999 0.2643027 0.55000001
0.31388211 0.26267183 0.55000001
0.31432652 0.26151833 0.551
0.31249139 0.25847501 0.54800004
0.31293941 0.25732693 0.54900002
0.31053978 0.25384673 0.54500002
0.31213072 0.25363246 0.54800004
0.3125833 0.25248331 0.54900002
0.31360632 0.25178772 0.551
0.31292337 0.2497208 0.55000001
0.31281117 0.24811327 0.55000001
0.31156358 0.24561171 0.54800004
0.31145504 0.2440147 0.54800004
0.31021178 0.24153523 0.546
0.31067479 0.24038804 0.54700005
0.30943558 0.23792753 0.54500002
0.31046903 0.23721549 0.54700005
0.30980095 0.2352016 0.546
0.31083643 0.23447931 0.54800004
0.30960447 0.23204748 0.546
0.31120899 0.23173982 0.54900002
0.30998045 0.22932068 0.54700005
0.31045356 0.22816408 0.54800004
0.3092286 0.22576316 0.546
0.31083664 0.22542873 0.54900002
0.31018099 0.22344795 0.54800004
0.31065872 0.2222845 0.54900002
0.31000599 0.22031304 0.54800004
0.31161708 0.21994574 0.551
0.31040156 0.21758147 0.54900002
0.31031841 0.21601725 0.54900002
0.30854127 0.21328279 0.546
0.31015587 0.21289378 0.54900002
0.3095116 0.21094954 0.54800004
0.31202745 0.20660728 0.55300003
0.31251743 0.2054151 0.55400002
0.31244433 0.20385078 0.55400002
0.31371829 0.19554733 0.55700004
0.32115024 0.17368519 0.57200003
0.32222143 0.17270082 0.574
0.32385442 0.1720044 0.57700002
0.32380414 0.17040633 0.57700002
0.3248769 0.16939428 0.57900006
0.32538912 0.16808228 0.58000004
0.32758474 0.16762672 0.58400005
0.3292197 0.16686568 0.58700001
0.33197653 0.16665192 0.59200001
0.33473334 0.16641141 0.597
0.31341109 0.27731195 0.55000001
0.31156096 0.27415556 0.54700005
0.31199163 0.27301311 0.54800004
0.31185475 0.27137253 0.54800004
0.31228864 0.27022722 0.54900002
0.31101826 0.26761127 0.54700005
0.31088743 0.2659826 0.54700005
0.31132659 0.26484013 0.54800004
0.31233501 0.26417485 0.55000001
0.31277671 0.26302317 0.551
0.31265232 0.26139393 0.551
0.3119626 0.25929597 0.55000001
0.31127504 0.25720656 0.54900002
0.3105897 0.25512564 0.54800004
0.31160611 0.25444099 0.55000001
0.31149071 0.25282776 0.55000001
0.31194317 0.25167376 0.551
0.31126499 0.24960871 0.55000001
0.31058881 0.24755187 0.54900002
0.30934912 0.24505524 0.54700005
0.30980784 0.24390781 0.54800004
0.3091374 0.24187249 0.54700005
0.30959883 0.24072371 0.54800004
0.30836704 0.23826219 0.546
0.30939591 0.23754838 0.54800004
0.30873227 0.2355333 0.54700005
0.30919895 0.2343815 0.54800004
0.30853859 0.23237632 0.54700005
0.30957162 0.2316447 0.54900002
0.30891427 0.22964638 0.54800004
0.31051275 0.22932048 0.551
0.30929482 0.22691268 0.54900002
0.31089494 0.2265705 0.55200005
0.3096801 0.22417504 0.55000001
0.30894458 0.22062941 0.54900002
0.30877727 0.21749836 0.54900002
0.30925778 0.21632873 0.55000001
0.30749068 0.21359313 0.54700005
0.30853561 0.21281441 0.54900002
0.31096321 0.20690669 0.55400002
0.31145141 0.20571269 0.55500001
0.31137934 0.20414665 0.55500001
0.31186938 0.2029471 0.55600005
0.31278387 0.19896625 0.55800003
0.31439817 0.19845997 0.56100005
0.31377158 0.19653429 0.56
0.31954843 0.17521995 0.57200003
0.32117271 0.17454441 0.57500005
0.32223886 0.17355239 0.57700002
0.32386386 0.17284822 0.58000004
0.32437253 0.17153791 0.58100003
0.32655653 0.17110041 0.58500004
0.32650816 0.16948283 0.58500004
0.32869282 0.16901393 0.58900005
0.33087763 0.16852383 0.59300005
0.31172371 0.27717057 0.55000001
0.30988485 0.27401698 0.54700005
0.31201336 0.27437007 0.551
0.31131172 0.27222756 0.55000001
0.31174412 0.27107799 0.551
0.31048134 0.26845843 0.54900002
0.31035203 0.26682574 0.54900002
0.31078961 0.26567894 0.55000001
0.31066376 0.26404896 0.55000001
0.31110433 0.26289886 0.551
0.30985308 0.26032308 0.54900002
0.30973285 0.25870425 0.54900002
0.30961433 0.25708801 0.54900002
0.31006128 0.25593969 0.55000001
0.3105095 0.25478804 0.551
0.31095907 0.25363308 0.55200005
0.3114098 0.25247467 0.55300003
0.310173 0.24995196 0.551
0.30893865 0.24744332 0.54900002
0.30770665 0.24494866 0.54700005
0.30816403 0.24380259 0.54800004
0.30806041 0.24221097 0.54800004
0.30852026 0.24106064 0.54900002
0.30785769 0.23903431 0.54800004
0.30832019 0.23788251 0.54900002
0.30822235 0.23629659 0.54900002
0.30812597 0.23471275 0.54900002
0.30746996 0.23270629 0.54800004
0.3079375 0.23155111 0.54900002
0.30784535 0.22997324 0.54900002
0.30999684 0.23006137 0.55300003
0.30878592 0.2276495 0.551
0.30981806 0.22689216 0.55300003
0.30805036 0.22408804 0.55000001
0.30732065 0.22054519 0.54900002
0.30779734 0.21937893 0.55000001
0.30659658 0.21702062 0.54800004
0.30763495 0.21624808 0.55000001
0.30699638 0.21429481 0.54900002
0.30803648 0.21351132 0.551
0.31094065 0.2063818 0.55700004
0.3103115 0.20444353 0.55600005
0.31024167 0.20287722 0.55600005
0.30961505 0.20095019 0.55500001
0.31177849 0.20082645 0.55900002
0.31226912 0.19961224 0.56
0.31900847 0.17578107 0.574
0.32118055 0.17540404 0.57800001
0.32168603 0.17410368 0.57900006
0.32385865 0.17369248 0.583
0.32492059 0.17266975 0.58500004
0.32709369 0.17222169 0.58900005
0.32871166 0.17146274 0.59200001
0.3325507 0.1718356 0.59900004
0.31004027 0.2770313 0.55000001
0.309903 0.27538252 0.55000001
0.31089419 0.27473226 0.55200005
0.31132334 0.27357835 0.55300003
0.3106285 0.27143806 0.55200005
0.30937353 0.2688179 0.55000001
0.30924591 0.26718408 0.55000001
0.30968219 0.26603594 0.551
0.31011981 0.26488471 0.55200005
0.30999723 0.26325336 0.55200005
0.30819228 0.26020285 0.54900002
0.308635 0.25905678 0.55000001
0.30795717 0.25697127 0.54900002
0.30929819 0.25352076 0.55200005
0.30974767 0.2523638 0.55300003
0.30907854 0.25029653 0.55200005
0.30785167 0.24778695 0.55000001
0.30662715 0.24529134 0.54800004
0.30652359 0.24369903 0.54800004
0.30698076 0.24255073 0.54900002
0.30688009 0.24095991 0.54900002
0.3067809 0.23937127 0.54900002
0.30780038 0.23865096 0.551
0.30826226 0.23749098 0.55200005
0.3076086 0.23547256 0.551
0.30695671 0.23346192 0.55000001
0.3068645 0.23188059 0.55000001
0.30677369 0.23030122 0.55000001
0.30779943 0.22955549 0.55200005
0.30771095 0.22797415 0.55200005
0.30818111 0.22680482 0.55300003
0.30642372 0.22400247 0.55000001
0.30689645 0.2228367 0.551
0.30625653 0.22086389 0.55000001
0.30617484 0.21929717 0.55000001
0.30609435 0.21773215 0.55000001
0.30657151 0.21656182 0.551
0.30593708 0.21460703 0.55000001
0.30641636 0.21343426 0.551
0.30634052 0.21187285 0.551
0.3093105 0.20631079 0.55700004
0.30868545 0.20437376 0.55600005
0.30972698 0.20353806 0.55800003
0.31021413 0.20233051 0.55900002
0.31961626 0.17855726 0.57800001
0.32067117 0.17756744 0.58000004
0.32227933 0.17687087 0.583
0.32278249 0.1755574 0.58400005
0.32494405 0.17513284 0.588
0.32655334 0.17439204 0.59100002
0.3292678 0.17422017 0.59600002
0.33142996 0.17373203 0.60000002
0.31060323 0.27890787 0.55400002
0.31046706 0.2772491 0.55400002
0.31033286 0.27559343 0.55400002
0.30964068 0.27344629 0.55300003
0.30951053 0.27179962 0.55300003
0.30826333 0.26917881 0.551
0.30869669 0.26802948 0.55200005
0.30857235 0.26639444 0.55200005
0.30789104 0.26428249 0.551
0.30832908 0.26313257 0.55200005
0.30709338 0.26055822 0.55000001
0.30753469 0.25941071 0.551
0.30741936 0.25779203 0.551
0.30775133 0.25502425 0.55200005
0.30764076 0.25341016 0.55200005
0.30808899 0.25225464 0.55300003
0.30742455 0.25018919 0.55200005
0.30676201 0.24813189 0.551
0.30554494 0.24563527 0.54900002
0.30599922 0.24448611 0.55000001
0.30589846 0.2428917 0.55000001
0.30579919 0.24129951 0.55000001
0.3057014 0.23970942 0.55000001
0.30671635 0.23898736 0.55200005
0.30717653 0.23782574 0.55300003
0.30652723 0.23580603 0.55200005
0.30587965 0.23379406 0.551
0.30578876 0.23221125 0.551
0.30514443 0.23021181 0.55000001
0.30616567 0.22946709 0.55200005
0.30663314 0.22829993 0.55300003
0.30654728 0.22671889 0.55300003
0.3053543 0.22432542 0.551
0.30527133 0.22275367 0.551
0.30518958 0.22118364 0.551
0.30510905 0.21961534 0.551
0.30558342 0.21844444 0.55200005
0.30550522 0.2168766 0.55200005
0.30542818 0.21531036 0.55200005
0.30535236 0.21374576 0.55200005
0.30527765 0.21218267 0.55200005
0.30575702 0.21100266 0.55300003
0.30623728 0.20981853 0.55400002
0.30720037 0.20743774 0.55600005
0.30768317 0.20624103 0.55700004
0.30871904 0.20540756 0.55900002
0.30975559 0.20456426 0.56100005
0.31024063 0.2033492 0.56200004
0.31860441 0.1820264 0.57900006
0.31910291 0.18073195 0.58000004
0.32015216 0.1797418 0.58200002
0.32120195 0.17874156 0.58400005
0.32225215 0.17773119 0.58600003
0.32330289 0.17671068 0.588
0.32600343 0.17657335 0.59300005
0.32980323 0.17699927 0.60000002
0.3089152 0.27877173 0.55400002
0.30878106 0.2771149 0.55400002
0.3080917 0.27496395 0.55300003
0.30796167 0.2733162 0.55300003
0.30727684 0.27118015 0.55200005
0.30770719 0.27002954 0.55300003
0.30758268 0.26839051 0.55300003
0.30746004 0.2667543 0.55300003
0.30733916 0.26512086 0.55300003
0.30722004 0.26349014 0.55300003
0.30599198 0.26091498 0.551
0.30587673 0.2592954 0.551
0.30576316 0.25767842 0.551
0.30620602 0.25652871 0.55200005
0.30665007 0.25537556 0.55300003
0.30654106 0.25376016 0.55300003
0.30643365 0.25214717 0.55300003
0.30577385 0.25008348 0.55200005
0.30566978 0.24847808 0.55200005
0.30556723 0.24687497 0.55200005
0.30546618 0.24527408 0.55200005
0.30536667 0.24367538 0.55200005
0.30471554 0.24164028 0.551
0.30406627 0.23961312 0.55000001
0.30452412 0.23845935 0.551
0.30498308 0.23730187 0.55200005
0.30489072 0.23571365 0.55200005
0.3047998 0.23412737 0.55200005
0.30471021 0.23254305 0.55200005
0.30462193 0.23096065 0.55200005
0.3050867 0.22979565 0.55300003
0.30610397 0.22903948 0.55500001
0.30546781 0.22704419 0.55400002
0.30483329 0.22505645 0.55300003
0.30420026 0.22307612 0.55200005
0.30411971 0.22150449 0.55200005
0.30459118 0.220333 0.55300003
0.30506358 0.21915744 0.55400002
0.30619678 0.20931129 0.55700004
0.30660811 0.2065426 0.55800003
0.30818865 0.20607449 0.56100005
0.31808427 0.18421507 0.58100003
0.31912729 0.18323192 0.583
0.32017082 0.1822387 0.58500004
0.32121485 0.18123534 0.58700001
0.32280651 0.1805279 0.59000003
0.32494557 0.18010803 0.59400004
0.32544386 0.17876559 0.59500003
0.32977104 0.17950235 0.60300004
0.30723092 0.27863759 0.55400002
0.3059901 0.2759828 0.55200005
0.30696854 0.2753309 0.55400002
0.30739403 0.27417606 0.55500001
0.30837461 0.27350932 0.55700004
0.3071425 0.27088124 0.55500001
0.30701947 0.26923811 0.55500001
0.30689821 0.26759776 0.55500001
0.30622599 0.265481 0.55400002
0.30610847 0.26384902 0.55400002
0.30599266 0.26221973 0.55400002
0.30587858 0.26059306 0.55400002
0.30521423 0.2585015 0.55300003
0.30455196 0.25641829 0.55200005
0.30554625 0.25572819 0.55400002
0.30599007 0.25457016 0.55500001
0.30588391 0.2529529 0.55500001
0.30522838 0.25088513 0.55400002
0.30457479 0.24882555 0.55300003
0.30447367 0.24722102 0.55300003
0.30437404 0.24561875 0.55300003
0.30427587 0.24401863 0.55300003
0.30417919 0.24242066 0.55300003
0.30408397 0.24082482 0.55300003
0.30399013 0.23923104 0.55300003
0.30389774 0.23763931 0.55300003
0.30380669 0.23604958 0.55300003
0.30371705 0.23446181 0.55300003
0.30417779 0.23329706 0.55400002
0.30463955 0.2321285 0.55500001
0.30455357 0.23054069 0.55500001
0.3050175 0.22936729 0.55600005
0.30493397 0.22778027 0.55600005
0.30485171 0.22619504 0.55600005
0.30422249 0.22420755 0.55500001
0.30414286 0.22262862 0.55500001
0.31706232 0.1877107 0.58200002
0.31700975 0.186095 0.58200002
0.31804723 0.18511432 0.58400005
0.31962973 0.18443772 0.58700001
0.32121256 0.1837455 0.59000003
0.32334009 0.18334633 0.59400004
0.32492349 0.18262008 0.597
0.32813978 0.1827876 0.60300004
0.30555031 0.27850547 0.55400002
0.30542013 0.27685252 0.55400002
0.30639401 0.27619612 0.55600005
0.30736881 0.27553076 0.55800003
0.30724335 0.27387485 0.55800003
0.30601892 0.27124611 0.55600005
0.30534732 0.26911691 0.55500001
0.30632785 0.26844224 0.55700004
0.3062098 0.26680049 0.55700004
0.30609345 0.26516145 0.55700004
0.30433077 0.26210567 0.55400002
0.3036693 0.26001051 0.55300003
0.30355883 0.25839096 0.55300003
0.30399868 0.25723824 0.55400002
0.30443975 0.25608209 0.55500001
0.30543044 0.25538105 0.55700004
0.30477744 0.25330397 0.55600005
0.30577025 0.25259307 0.55800003
0.30457273 0.25007379 0.55600005
0.30556783 0.24935579 0.55800003
0.30492148 0.24729657 0.55700004
0.30482417 0.24568637 0.55700004
0.30363414 0.24320187 0.55500001
0.30408701 0.24203701 0.55600005
0.30344743 0.24000354 0.55500001
0.30335614 0.23840745 0.55500001
0.30326626 0.23681334 0.55500001
0.30317771 0.23522118 0.55500001
0.30309051 0.23363094 0.55500001
0.3035506 0.23246069 0.55600005
0.30346587 0.23087132 0.55600005
0.30338246 0.22928379 0.55600005
0.30384576 0.22810756 0.55700004
0.31652573 0.18992445 0.58400005
0.31755689 0.18894792 0.58600003
0.31804672 0.18764165 0.58700001
0.31962076 0.18696468 0.59000003
0.32119513 0.18627204 0.59300005
0.32331133 0.18587515 0.597
0.3265107 0.18607426 0.60300004
0.30551884 0.27988276 0.55700004
0.30538991 0.2782228 0.55700004
0.30635896 0.27755883 0.55900002
0.30678111 0.27639243 0.56
0.30720475 0.27522302 0.56100005
0.30544013 0.2721 0.55800003
0.30532017 0.27045158 0.55800003
0.30465499 0.2683242 0.55700004
0.3056322 0.26764175 0.55900002
0.30497068 0.26552269 0.55800003
0.30431122 0.26341212 0.55700004
0.30310771 0.26084 0.55500001
0.30354452 0.25968331 0.55600005
0.30289096 0.25759494 0.55500001
0.3038761 0.25689852 0.55700004
0.30377135 0.25527623 0.55700004
0.30366811 0.2536563 0.55700004
0.30356643 0.25203866 0.55700004
0.30346626 0.25042334 0.55700004
0.30445686 0.24970362 0.55900002
0.30435932 0.2480869 0.55900002
0.30426317 0.24647239 0.55900002
0.30362439 0.24442196 0.55800003
0.3040753 0.24324968 0.55900002
0.30398348 0.24164143 0.55900002
0.303893 0.24003521 0.55900002
0.30380395 0.23843098 0.55900002
0.30317292 0.23640503 0.55800003
0.30254346 0.23438671 0.55700004
0.30191571 0.23237601 0.55600005
0.3165186 0.19247712 0.58700001
0.31862229 0.19214773 0.59100002
0.31910902 0.19083008 0.59200001
0.31959647 0.18950798 0.59300005
0.32116231 0.18881494 0.59600002
0.32488367 0.18936244 0.60300004
0.30547276 0.28126061 0.56
0.30534509 0.27959356 0.56
0.30521926 0.27792951 0.56
0.30509531 0.27626842 0.56
0.30551776 0.27510065 0.56100005
0.30539718 0.27344233 0.56100005
0.30419001 0.27081785 0.55900002
0.30407339 0.26917097 0.55900002
0.30450222 0.26800537 0.56
0.30438879 0.26636091 0.56
0.30319038 0.26377365 0.55800003
0.30199435 0.26120067 0.55600005
0.30242959 0.26004246 0.55700004
0.3028661 0.25888085 0.55800003
0.3027612 0.25725481 0.55800003
0.30265784 0.25563115 0.55800003
0.30201384 0.25355464 0.55700004
0.30353981 0.25329545 0.56
0.30344069 0.25167292 0.56
0.30442643 0.25094566 0.56200004
0.30378839 0.24887815 0.56100005
0.30315214 0.24681851 0.56
0.30251762 0.24476679 0.55900002
0.30242592 0.24315789 0.55900002
0.30233556 0.24155101 0.55900002
0.31456989 0.20024431 0.58600003
0.3155871 0.19929035 0.588
0.31499499 0.19731799 0.58700001
0.31601357 0.19635244 0.58900005
0.31595978 0.19471566 0.58900005
0.31805229 0.19439125 0.59300005
0.31960869 0.19372065 0.59600002
0.32170165 0.19335674 0.60000002
0.32272258 0.19233271 0.60200006
0.32535207 0.19224879 0.60700005
0.30486962 0.28213701 0.56200004
0.30474344 0.2804659 0.56200004
0.30353498 0.2778056 0.56
0.30341288 0.27614629 0.56
0.3038342 0.2749801 0.56100005
0.30479819 0.27429792 0.56300002
0.30359846 0.27166978 0.56100005
0.30294222 0.26953739 0.56
0.30228806 0.26741362 0.55900002
0.30325773 0.26672465 0.56100005
0.30260709 0.26460898 0.56
0.30195853 0.26250175 0.55900002
0.30239192 0.26133618 0.56
0.3033663 0.260631 0.56200004
0.30272272 0.25853404 0.56100005
0.30208099 0.25644526 0.56
0.30144116 0.25436461 0.55900002
0.30242044 0.25364852 0.56100005
0.3028616 0.25247383 0.56200004
0.30222642 0.25040284 0.56100005
0.30213159 0.24878326 0.56100005
0.30149978 0.24672525 0.56
0.30140796 0.24511278 0.56
0.30131754 0.24350241 0.56
0.3017664 0.24232599 0.56100005
0.30968156 0.21235353 0.57900006
0.30961838 0.21073103 0.57900006
0.31062549 0.20983216 0.58100003
0.31109861 0.20856504 0.58200002
0.312107 0.2076492 0.58400005
0.31311592 0.20672342 0.58600003
0.31412542 0.20578773 0.588
0.31460139 0.20449494 0.58900005
0.31507805 0.20319778 0.59000003
0.31608942 0.20223783 0.59200001
0.31656754 0.20092911 0.59300005
0.31758004 0.19995199 0.59500003
0.31859317 0.19896491 0.597
0.31907329 0.19763733 0.59800005
0.32062101 0.1969607 0.60100001
0.32323593 0.19691844 0.60600001
0.30317903 0.28201085 0.56200004
0.30359393 0.2808404 0.56300002
0.3029322 0.27867523 0.56200004
0.30335033 0.27750474 0.56300002
0.30269259 0.27535132 0.56200004
0.30365223 0.27466753 0.56400001
0.30192184 0.27155453 0.56100005
0.30127034 0.26942408 0.56
0.30008313 0.26682398 0.55800003
0.30158633 0.26661447 0.56100005
0.30147779 0.26497295 0.56100005
0.30190808 0.26380342 0.56200004
0.30126557 0.26169753 0.56100005
0.30223545 0.26099059 0.56300002
0.30159625 0.25889248 0.56200004
0.30149537 0.25726026 0.56200004
0.30032343 0.25472063 0.56
0.3023704 0.25490668 0.56400001
0.30173776 0.25282645 0.56300002
0.30164269 0.25120041 0.56300002
0.3004778 0.2486899 0.56100005
0.30092132 0.24751429 0.56200004
0.30029538 0.24545994 0.56100005
0.30074134 0.24428274 0.56200004
0.30866987 0.21590969 0.58000004
0.30966976 0.21502158 0.58200002
0.31067032 0.21412365 0.58400005
0.31060773 0.21248816 0.58400005
0.31267312 0.21229817 0.588
0.31261209 0.21065411 0.588
0.3136152 0.2097223 0.59000003
0.31355596 0.2080752 0.59000003
0.31456035 0.20712911 0.59200001
0.31609663 0.20652021 0.59500003
0.31657091 0.20520717 0.59600002
0.31810808 0.20457283 0.59900004
0.31911466 0.20358416 0.60100001
0.32065263 0.20292151 0.60400003
0.32325262 0.20290971 0.60900003
0.30376282 0.28557515 0.56600004
0.30095536 0.28138497 0.56100005
0.30190557 0.2807177 0.56300002
0.3012487 0.27855459 0.56200004
0.30112982 0.27689296 0.56200004
0.30047712 0.27474445 0.56100005
0.30196816 0.27455175 0.56400001
0.30131888 0.27240872 0.56300002
0.30013672 0.26979339 0.56100005
0.29842216 0.26671442 0.55800003
0.29938349 0.26603088 0.56
0.2992768 0.26439393 0.56
0.30024022 0.26369792 0.56200004
0.30013636 0.26206008 0.56200004
0.30110177 0.26135147 0.56400001
0.3010006 0.25971261 0.56400001
0.30036747 0.25761852 0.56300002
0.29973617 0.25553256 0.56200004
0.30070621 0.25480998 0.56400001
0.30061099 0.2531803 0.56400001
0.29998446 0.25110677 0.56300002
0.29935962 0.24904115 0.56200004
0.29980153 0.2478639 0.56300002
0.29917979 0.24580821 0.56200004
0.30566967 0.22121333 0.57700002
0.30613235 0.21997067 0.57800001
0.30606636 0.2183461 0.57800001
0.30653086 0.21709791 0.57900006
0.30805475 0.21658979 0.58200002
0.30957904 0.21606626 0.58500004
0.31110364 0.21552725 0.588
0.31209973 0.21460907 0.59000003
0.31309637 0.213681 0.59200001
0.31356487 0.21238494 0.59300005
0.31509143 0.21179526 0.59600002
0.31608981 0.21083756 0.59800005
0.31761724 0.2102197 0.60100001
0.31861672 0.20923938 0.60300004
0.32014498 0.20859334 0.60600001
0.32220188 0.20827323 0.61000001
0.30259877 0.28595433 0.56700003
0.3003414 0.28226545 0.56300002
0.30075383 0.28109527 0.56400001
0.30010155 0.27893117 0.56300002
0.29998428 0.27726835 0.56300002
0.29986873 0.27560836 0.56300002
0.30028734 0.2744377 0.56400001
0.2996428 0.27229658 0.56300002
0.29900029 0.27016401 0.56200004
0.29835984 0.26803994 0.56100005
0.29931632 0.26734886 0.56300002
0.29867929 0.26523277 0.56200004
0.29910672 0.26406309 0.56300002
0.29847321 0.26195779 0.56200004
0.2994343 0.26125035 0.56400001
0.29933473 0.25961301 0.56400001
0.29976723 0.25843543 0.565
0.29914007 0.2563453 0.56400001
0.30063561 0.25606972 0.56700003
0.30001143 0.25398409 0.56600004
0.30044869 0.25279805 0.56700003
0.29876816 0.24983652 0.56400001
0.29920825 0.24865474 0.565
0.29859057 0.24659483 0.56400001
0.30473366 0.22641346 0.57800001
0.30571872 0.22556183 0.58000004
0.30512345 0.22354221 0.57900006
0.30663693 0.22306277 0.58200002
0.30657056 0.22142656 0.58200002
0.3075586 0.22054711 0.58400005
0.30854717 0.21965785 0.58600003
0.30953637 0.21875876 0.588
0.31210512 0.2189576 0.59300005
0.31414762 0.21876332 0.597
0.31619033 0.21854806 0.60100001
0.31560317 0.21650751 0.60000002
0.31606904 0.21518996 0.60100001
0.31758732 0.21457866 0.60400003
0.32068309 0.21500929 0.61000001
0.30196276 0.28683901 0.56900001
0.2997188 0.28314692 0.565
0.29959938 0.28147417 0.565
0.29842162 0.2788139 0.56300002
0.29883593 0.27764511 0.56400001
0.298722 0.2759839 0.56400001
0.29913914 0.27481177 0.565
0.2999773 0.27245805 0.56700003
0.30039826 0.27127632 0.56800002
0.29976311 0.269142 0.56700003
0.29912996 0.26701602 0.56600004
0.29797035 0.26442951 0.56400001
0.29839745 0.26325491 0.565
0.29869461 0.25107554 0.56700003
0.30320191 0.22960566 0.57800001
0.30522957 0.22955191 0.58200002
0.3062087 0.22869398 0.58400005
0.30666423 0.2274375 0.58500004
0.30607244 0.22540502 0.58400005
0.30757788 0.22491223 0.58700001
0.30908376 0.2244041 0.59000003
0.30954251 0.22312547 0.59100002
0.31104934 0.22259215 0.59400004
0.31098598 0.22092758 0.59400004
0.31563464 0.22258663 0.60300004
0.31923571 0.223464 0.61000001
0.29973504 0.2862131 0.56800002
0.29856005 0.28352848 0.56600004
0.29896948 0.28235254 0.56700003
0.29885319 0.28067854 0.56700003
0.29979241 0.27999154 0.56900001
0.29862577 0.27733901 0.56700003
0.29903439 0.26832783 0.56900001
0.29840717 0.26620319 0.56800002
0.30331096 0.23565291 0.58100003
0.30428204 0.23481479 0.583
0.30421022 0.23316716 0.583
0.30518293 0.23231539 0.58500004
0.30719936 0.23224254 0.58900005
0.30869451 0.23175718 0.59200001
0.30914745 0.2304792 0.59300005
0.30908 0.22881125 0.59300005
0.31109807 0.22867694 0.597
0.31363735 0.22890195 0.60200006
0.31513479 0.22834544 0.60500002
0.31611192 0.22739899 0.60700005
0.31865168 0.2275582 0.61200005
0.29856592 0.28659678 0.56900001
0.29792303 0.28441209 0.56800002
0.29780653 0.28273401 0.56800002
0.29821593 0.28155363 0.56900001
0.29915053 0.28086206 0.57100004
0.2976796 0.26538512 0.57000005
0.2986263 0.26465791 0.57200003
0.30393004 0.2421736 0.58500004
0.30229628 0.23928128 0.58200002
0.30326092 0.23844925 0.58400005
0.30370703 0.23720209 0.58500004
0.30674922 0.23796418 0.59100002
0.30667764 0.23629509 0.59100002
0.30764481 0.23542164 0.59300005
0.30913123 0.23493268 0.59600002
0.31165528 0.23521112 0.60100001
0.31262398 0.23429735 0.60300004
0.31359324 0.23337385 0.60500002
0.31508145 0.23282358 0.60800004
0.31967881 0.23453873 0.61700004
0.29687235 0.28647834 0.56900001
0.29675567 0.28479615 0.56900001
0.29664078 0.28311688 0.56900001
0.2975699 0.2824297 0.57100004
0.30282891 0.24417421 0.58600003
0.30430326 0.24375348 0.58900005
0.30422851 0.24208444 0.58900005
0.30570409 0.24164166 0.59200001
0.30563131 0.23996757 0.59200001
0.30762428 0.23990527 0.59600002
0.30806935 0.2386229 0.597
0.31006309 0.23852719 0.60100001
0.31205699 0.23841053 0.60500002
0.31559819 0.23944673 0.61200005
0.31913891 0.24044506 0.61900002
0.29621944 0.28736827 0.57100004
0.29714128 0.28668252 0.57300001
0.29547223 0.28350109 0.57000005
0.30160561 0.25410348 0.58600003
0.3020384 0.25286207 0.58700001
0.30247217 0.25161684 0.588
0.30290702 0.25036791 0.58900005
0.30385694 0.24953732 0.59100002
0.30429354 0.24827786 0.59200001
0.30370337 0.24618141 0.59100002
0.3051697 0.24574731 0.59400004
0.30612284 0.24488708 0.59600002
0.30810365 0.24483335 0.60000002
0.30905795 0.24394831 0.60200006
0.31155267 0.24426085 0.60700005
0.31302109 0.24374764 0.61000001
0.31551605 0.24401273 0.61500001
0.29555774 0.28825912 0.57300001
0.30144075 0.25532222 0.58900005
0.30238321 0.254504 0.59100002
0.30383793 0.25410414 0.59400004
0.30427036 0.25283921 0.59500003
0.30521497 0.25199255 0.597
0.30564931 0.25071719 0.59800005
0.3065955 0.24985433 0.60000002
0.30805328 0.24939555 0.60300004
0.31002229 0.24933231 0.60700005
0.31250212 0.24965613 0.61200005
0.31447148 0.24954832 0.61600006
0.30040637 0.25904274 0.59000003
0.30134222 0.25823012 0.59200001
0.30176997 0.25697482 0.59300005
0.30168995 0.25528523 0.59300005
0.30415431 0.25573581 0.59800005
0.30611008 0.25573507 0.60200006
0.30908281 0.25655743 0.60800004
0.30951408 0.25525191 0.60900003
0.31096253 0.25477517 0.61200005
0.3129195 0.2546967 0.61600006
0.29979202 0.2615298 0.59200001
0.30173466 0.26159406 0.59600002
0.30266526 0.26076537 0.59800005
0.30359662 0.2599273 0.60000002
0.30351698 0.25821903 0.60000002
0.30697876 0.25950539 0.60700005
0.30942875 0.25990447 0.61200005
0.31339517 0.26154259 0.62
0.29933709 0.26743045 0.59400004
0.29975557 0.26617581 0.59500003
0.30118242 0.26580653 0.59800005
0.30260974 0.26542211 0.60100001
0.30403757 0.26502267 0.60400003
0.30496264 0.2641722 0.60600001
0.3063916 0.26374543 0.60900003
0.30832404 0.26373377 0.61300004
0.31176522 0.26498348 0.62
0.29820228 0.26950094 0.59500003
0.30012104 0.26959556 0.59900004
0.30204001 0.26966944 0.60300004
0.30395919 0.26972252 0.60700005
0.30587861 0.26975483 0.611
0.30729777 0.26932776 0.61400002
0.30871749 0.26888561 0.61700004
0.2981472 0.27420634 0.59800005
0.29905689 0.27340037 0.60000002
0.30046567 0.27303797 0.60300004
0.30287123 0.27356037 0.60800004
0.30477875 0.27360928 0.61200005
0.30668652 0.27363744 0.61600006
0.31008774 0.27496892 0.62300003
0.29717708 0.27974749 0.59900004
0.29848579 0.27768242 0.60200006
0.30087644 0.27824473 0.60700005
0.30326706 0.27878061 0.61200005
0.30417147 0.27793205 0.61400002
0.30557194 0.27752405 0.61700004
0.29679725 0.28753477 0.60100001
0.29719621 0.28627077 0.60200006
0.2980898 0.28547603 0.60400003
0.29799756 0.28373271 0.60400003
0.29938644 0.28339243 0.60700005
0.30028272 0.28257316 0.60900003
0.30216575 0.28266704 0.61300004
0.30454177 0.28319845 0.61800003
0.30691782 0.28370345 0.62300003
0.29563755 0.28966179 0.60200006
0.29701546 0.28935313 0.60500002
0.29839393 0.2890296 0.60800004
0.29928231 0.28821871 0.61000001
0.29968107 0.28692913 0.611
0.30253267 0.28796989 0.61700004
0.30342317 0.28712299 0.61900002
0.3077448 0.2894938 0.62800002
0.29505849 0.2940321 0.60400003
0.29593846 0.29324701 0.60600001
0.29730752 0.29293394 0.60900003
0.29770109 0.29164982 0.61000001
0.29955944 0.29178807 0.61400002
0.30044267 0.29096109 0.61600006
0.30327702 0.2920028 0.62200004
0.30611107 0.29301241 0.62800002
0.29583049 0.2981371 0.60900003
0.29621857 0.29685527 0.61000001
0.29709333 0.29605401 0.61200005
0.29845423 0.29572457 0.61500001
0.29933062 0.29490241 0.61700004
0.30214781 0.29597148 0.62300003
0.30447984 0.29653624 0.62800002
0.29657611 0.30227068 0.61400002
0.29744354 0.30146533 0.61600006
0.29879454 0.30113754 0.61900002
0.30014619 0.30079502 0.62200004
0.30149838 0.30043769 0.625
0.30236897 0.29958779 0.62700003
0.29681516 0.30593783 0.61800003
0.29767644 0.30512518 0.62
0.29997852 0.30577132 0.625
0.30276045 0.30687755 0.63100004
0.30506238 0.30746818 0.63600004
0.29655585 0.30913037 0.62100005
