# .PCD v0.7 - Point Cloud Data file format
VERSION 0.7
FIELDS x y z
SIZE 4 4 4
TYPE F F F
COUNT 1 1 1
WIDTH 1489
HEIGHT 1
VIEWPOINT 0 0 0 1 0 0 0
POINTS 1489
DATA ascii
0.32508183 0.16380209 0.50100005
0.32556462 0.16127534 0.50200003
0.32483506 0.15953203 0.50100005
0.32467648 0.15669169 0.50100005
0.32589471 0.15589319 0.50300002
0.32776129 0.15539174 0.50600004
0.32703766 0.15365738 0.505
0.32631549 0.15192987 0.50400001
0.326242 0.15050775 0.50400001
0.32616961 0.14908676 0.50400001
0.32674536 0.14795989 0.505
0.326675 0.14653827 0.505
0.32789922 0.1456925 0.50700003
0.32847726 0.14455196 0.50800002
0.32905611 0.14340682 0.509
0.32474321 0.16294314 0.50300002
0.32401651 0.16119421 0.50200003
0.32522723 0.16040702 0.50400001
0.32450306 0.15866347 0.50300002
0.32507035 0.15755202 0.50400001
0.32563844 0.15643612 0.505
0.3274968 0.15592968 0.50800002
0.32742175 0.15449509 0.50800002
0.32605907 0.15245906 0.50600004
0.32598653 0.1510324 0.50600004
0.32655919 0.14990254 0.50700003
0.32713264 0.14876813 0.50800002
0.32706305 0.14733917 0.50800002
0.32635081 0.14562404 0.50700003
0.32692701 0.14448439 0.50800002
0.32686055 0.14305854 0.50800002
0.32520393 0.16526979 0.50600004
0.32447979 0.16350955 0.505
0.32311484 0.16143535 0.50300002
0.32496282 0.16096431 0.50600004
0.32552686 0.15984696 0.50700003
0.32609177 0.15872519 0.50800002
0.32601571 0.15728936 0.50800002
0.32594082 0.15585472 0.50800002
0.32586703 0.15442123 0.50800002
0.32387036 0.15208542 0.505
0.32572275 0.1515577 0.50800002
0.32629326 0.15042312 0.509
0.3268646 0.14928405 0.51000005
0.32551435 0.14727069 0.50800002
0.32608759 0.14613092 0.509
0.32666168 0.14498657 0.51000005
0.32723644 0.1438376 0.51100004
0.32717171 0.14240536 0.51100004
0.32300928 0.16486183 0.505
0.3229292 0.16342942 0.505
0.32157174 0.16135672 0.50300002
0.32405096 0.16120432 0.50700003
0.32525209 0.16040027 0.509
0.32581493 0.15927385 0.51000005
0.32573989 0.15783349 0.51000005
0.32566592 0.15639432 0.51000005
0.32559311 0.1549563 0.51000005
0.32360652 0.15261637 0.50700003
0.32545069 0.15208367 0.51000005
0.32538107 0.15064901 0.51000005
0.32658824 0.14980058 0.51200002
0.32524502 0.14778292 0.51000005
0.32709131 0.14721236 0.51300001
0.32766291 0.14605765 0.514
0.32951 0.14546108 0.51700002
0.32817119 0.14345592 0.51500005
0.32683384 0.14146292 0.51300001
0.3228147 0.1668727 0.50700003
0.3240076 0.16608708 0.509
0.32329184 0.16432102 0.50800002
0.3225776 0.16256192 0.50700003
0.32377303 0.16176312 0.509
0.32496905 0.16095427 0.51100004
0.32552981 0.15982316 0.51200002
0.32609135 0.15868761 0.51300001
0.32474723 0.15662806 0.51100004
0.32531083 0.15549199 0.51200002
0.32333428 0.15314791 0.509
0.32453519 0.15231219 0.51100004
0.32446662 0.15087576 0.51100004
0.32566875 0.15002529 0.51300001
0.32433257 0.14800613 0.51100004
0.32680538 0.14772023 0.51500005
0.32737485 0.14656079 0.51600003
0.32921374 0.14595926 0.51900005
0.32851601 0.14422816 0.51800001
0.3284536 0.14277926 0.51800001
0.32712427 0.14078566 0.51600003
0.3222118 0.18269092 0.50700003
0.32148382 0.1808808 0.50600004
0.32205853 0.17000517 0.50800002
0.32261091 0.16889448 0.509
0.32316425 0.16777949 0.51000005
0.32308489 0.16633396 0.51000005
0.32300672 0.16488972 0.51000005
0.32229647 0.16312623 0.509
0.3234868 0.16232264 0.51100004
0.32467768 0.16150895 0.51300001
0.32397085 0.15974914 0.51200002
0.3245306 0.15861453 0.51300001
0.32509118 0.15747547 0.514
0.3256526 0.15633193 0.51500005
0.32368591 0.15398087 0.51200002
0.32424945 0.15283954 0.51300001
0.32354984 0.15110342 0.51200002
0.32474691 0.15025093 0.514
0.32404953 0.14851972 0.51300001
0.32587954 0.14794199 0.51600003
0.3270784 0.14706455 0.51800001
0.32764649 0.14589581 0.51900005
0.32758406 0.14444414 0.51900005
0.32941583 0.14381996 0.52200001
0.33061692 0.14290728 0.52400005
0.33118761 0.14171441 0.52500004
0.33238977 0.14078404 0.52700001
0.32207194 0.20309342 0.50700003
0.32132557 0.20122001 0.50600004
0.32263908 0.18514034 0.51000005
0.32381096 0.18439914 0.51200002
0.32308662 0.18257621 0.51100004
0.32362819 0.1814694 0.51200002
0.32164305 0.1789521 0.509
0.32218722 0.17784832 0.51000005
0.32121757 0.1717038 0.509
0.32176709 0.17059283 0.51000005
0.32231748 0.16947752 0.51100004
0.32349929 0.16868667 0.51300001
0.32405126 0.1675598 0.514
0.32271317 0.16545907 0.51200002
0.322007 0.16369124 0.51100004
0.32319221 0.1628828 0.51300001
0.32500786 0.16237898 0.51600003
0.32430485 0.16061197 0.51500005
0.32486242 0.15946987 0.51600003
0.3235324 0.15740459 0.514
0.32472128 0.15656538 0.51600003
0.32402316 0.15481421 0.51500005
0.3252134 0.15396315 0.51700002
0.32451746 0.15221696 0.51600003
0.32508039 0.15106182 0.51700002
0.32438672 0.14932333 0.51600003
0.32495135 0.14816463 0.51700002
0.32488835 0.14671756 0.51700002
0.32545456 0.14555247 0.51800001
0.32602161 0.14438276 0.51900005
0.3291015 0.14431 0.52400005
0.33029735 0.14339243 0.52600002
0.32008162 0.20553032 0.50600004
0.3212564 0.18797247 0.51000005
0.32242164 0.18724053 0.51200002
0.32295799 0.18613592 0.51300001
0.32412466 0.18538713 0.51500005
0.32394388 0.18244287 0.51500005
0.32196885 0.17991878 0.51200002
0.32217592 0.17297119 0.51300001
0.32146734 0.1711812 0.51200002
0.3220157 0.17006125 0.51300001
0.32319245 0.16926561 0.51500005
0.32248753 0.16748239 0.514
0.32178411 0.1657061 0.51300001
0.32170919 0.16425692 0.51300001
0.32414326 0.16407838 0.51700002
0.32532364 0.16324943 0.51900005
0.32462448 0.16147518 0.51800001
0.32392669 0.15970774 0.51700002
0.32260385 0.15764101 0.51500005
0.32441399 0.15710305 0.51800001
0.32434589 0.1556479 0.51800001
0.32553092 0.15478921 0.52000004
0.32421285 0.15274087 0.51800001
0.32477367 0.151581 0.51900005
0.32533514 0.15041655 0.52000004
0.3258974 0.14924754 0.52100003
0.32520962 0.14750658 0.52000004
0.32514825 0.14605308 0.52000004
0.32696337 0.14543474 0.523
0.32877877 0.14480062 0.52600002
0.33059445 0.1441507 0.52900004
0.33116069 0.14294554 0.53000003
0.32113147 0.19155544 0.51200002
0.32103568 0.19008446 0.51200002
0.3215681 0.1889835 0.51300001
0.32335487 0.18860951 0.51600003
0.32326245 0.18713193 0.51600003
0.32442397 0.18637551 0.51800001
0.32370773 0.18453842 0.51700002
0.32361907 0.18306264 0.51700002
0.32228017 0.18088591 0.51500005
0.32381994 0.17604564 0.51800001
0.32186371 0.1735646 0.51500005
0.31990954 0.17110193 0.51200002
0.32045615 0.16998297 0.51300001
0.32162815 0.1691882 0.51500005
0.3228007 0.16838336 0.51700002
0.32272533 0.16692273 0.51700002
0.32265109 0.16546334 0.51700002
0.32382587 0.16463965 0.51900005
0.32437736 0.16349144 0.52000004
0.32492962 0.16233879 0.52100003
0.32423568 0.16056411 0.52000004
0.32291961 0.15849026 0.51800001
0.32409823 0.15764138 0.52000004
0.32465419 0.156482 0.52100003
0.32521093 0.15531808 0.52200001
0.32452267 0.15356015 0.52100003
0.32570392 0.15268469 0.523
0.3262631 0.15150991 0.52400005
0.32620043 0.15004422 0.52400005
0.32551631 0.14829597 0.523
0.32607803 0.14711578 0.52400005
0.32850692 0.14676483 0.528
0.32844758 0.14529184 0.528
0.32838923 0.14381976 0.528
0.3283318 0.14234862 0.528
0.33076218 0.14194563 0.53200001
0.33375856 0.14029172 0.537
0.32099906 0.1951634 0.514
0.32152605 0.1940615 0.51500005
0.32142988 0.19258159 0.51500005
0.32071114 0.19073229 0.514
0.32061791 0.18925859 0.514
0.3217732 0.18851717 0.51600003
0.32292908 0.18776588 0.51800001
0.32346243 0.18664512 0.51900005
0.32275051 0.18480662 0.51800001
0.32266313 0.18332927 0.51800001
0.32195431 0.18150236 0.51700002
0.32294849 0.17777708 0.51900005
0.32348919 0.17664379 0.52000004
0.3215431 0.17415872 0.51700002
0.31959906 0.171692 0.514
0.3201437 0.17056842 0.51500005
0.32193208 0.17009717 0.51800001
0.32247809 0.16895916 0.51900005
0.3236461 0.16813947 0.52100003
0.32295147 0.16635001 0.52000004
0.32474187 0.16583572 0.523
0.32404947 0.16404867 0.52200001
0.32459965 0.16289133 0.523
0.32390967 0.16111223 0.52200001
0.3238413 0.15964572 0.52200001
0.32377404 0.15818031 0.52200001
0.32432789 0.15701622 0.523
0.32488254 0.15584761 0.52400005
0.32481804 0.15437981 0.52400005
0.32475454 0.15291306 0.52400005
0.32593128 0.15202536 0.52600002
0.32648897 0.15084127 0.52700001
0.32766688 0.14993601 0.52900004
0.32760662 0.14845926 0.52900004
0.32940483 0.147817 0.53200001
0.32810801 0.14578366 0.53000003
0.3286694 0.1445792 0.53100002
0.32737499 0.14256163 0.52900004
0.32917556 0.14188962 0.53200001
0.32973915 0.14067394 0.53300005
0.33215901 0.14023697 0.537
0.33086833 0.13822845 0.53500003
0.33081558 0.13674301 0.53500003
0.31951699 0.19654515 0.514
0.3194198 0.19506611 0.514
0.32118776 0.19471869 0.51700002
0.32109278 0.19323443 0.51700002
0.32162005 0.19212271 0.51800001
0.32028621 0.18990286 0.51600003
0.32081598 0.1887915 0.51700002
0.32072636 0.18731371 0.51700002
0.32187843 0.18655637 0.51900005
0.32117102 0.18471934 0.51800001
0.32108507 0.18324326 0.51800001
0.32038069 0.18141773 0.51700002
0.32029739 0.17994745 0.51700002
0.32207346 0.17951423 0.52000004
0.32199213 0.17803821 0.52000004
0.32253104 0.17690311 0.52100003
0.32121411 0.17475358 0.51900005
0.31989893 0.17261668 0.51700002
0.32044134 0.17148557 0.51800001
0.32283998 0.17133479 0.52200001
0.32338363 0.17018645 0.523
0.32454634 0.1693563 0.52500004
0.32261929 0.16691728 0.52200001
0.32316583 0.16576415 0.523
0.32247764 0.16397829 0.52200001
0.323026 0.16282189 0.523
0.32357526 0.16166101 0.52400005
0.32350782 0.16018993 0.52400005
0.32344142 0.15871994 0.52400005
0.32461029 0.15785119 0.52600002
0.32454568 0.15637776 0.52600002
0.32633269 0.15578884 0.52900004
0.32626972 0.15430908 0.52900004
0.32620764 0.15283033 0.52900004
0.32676312 0.15163872 0.53000003
0.32731929 0.15044245 0.53100002
0.32849249 0.14952213 0.53300005
0.32843381 0.14803612 0.53300005
0.32837605 0.14655103 0.53300005
0.32770315 0.14479467 0.53200001
0.32887909 0.14385298 0.53400004
0.32882392 0.14236782 0.53400004
0.33061662 0.14167498 0.537
0.33117852 0.14044428 0.53800005
0.33297196 0.13972536 0.54100001
0.33168885 0.13771315 0.53900003
0.31741843 0.19754234 0.51300001
0.31855875 0.19683026 0.51500005
0.31908128 0.19572905 0.51600003
0.32145941 0.19575314 0.52000004
0.32136545 0.19426164 0.52000004
0.32189062 0.1931425 0.52100003
0.32056385 0.19091573 0.51900005
0.32047403 0.18943197 0.51900005
0.32100287 0.18831189 0.52000004
0.32153261 0.18718763 0.52100003
0.32144633 0.18570279 0.52100003
0.3213613 0.18421941 0.52100003
0.32189417 0.18308826 0.52200001
0.32181147 0.18160497 0.52200001
0.32234627 0.18046814 0.523
0.32164964 0.17864259 0.52200001
0.32218656 0.17750284 0.523
0.32026082 0.17501257 0.52000004
0.32080007 0.17387551 0.52100003
0.32195571 0.17306496 0.523
0.32372743 0.17257254 0.52600002
0.32303813 0.17076336 0.52500004
0.32358056 0.16960594 0.52600002
0.32227871 0.16748522 0.52400005
0.32343811 0.16664423 0.52600002
0.32275367 0.16485114 0.52500004
0.32329985 0.1636872 0.52600002
0.32384685 0.1625188 0.52700001
0.32378018 0.16104032 0.52700001
0.32432881 0.15986571 0.528
0.32426408 0.15838659 0.528
0.32358631 0.15661135 0.52700001
0.32475147 0.1557259 0.52900004
0.32530335 0.15453869 0.53000003
0.32585591 0.15334688 0.53100002
0.32702279 0.15243651 0.53300005
0.32757673 0.15123272 0.53400004
0.32813135 0.15002432 0.53500003
0.32807347 0.14853366 0.53500003
0.32862958 0.14731875 0.53600001
0.33126625 0.13667311 0.54100001
0.333004 0.13441762 0.54400003
0.31655386 0.20782134 0.51300001
0.31706536 0.20673572 0.514
0.31717545 0.19969796 0.51500005
0.31707838 0.19821537 0.51500005
0.3182137 0.19749852 0.51700002
0.31934974 0.19677192 0.51900005
0.32110146 0.19641176 0.52200001
0.32100865 0.19491588 0.52200001
0.32214671 0.19416274 0.52400005
0.32082701 0.19192903 0.52200001
0.3201237 0.19007318 0.52100003
0.32065055 0.18894851 0.52200001
0.32117838 0.18781967 0.523
0.32109317 0.18633038 0.523
0.32039544 0.18448913 0.52200001
0.32031292 0.18300562 0.52200001
0.32023156 0.18152355 0.52200001
0.32137805 0.18073268 0.52400005
0.3206856 0.17890561 0.523
0.32122067 0.17776407 0.52400005
0.31991798 0.17560896 0.52200001
0.32106793 0.17480083 0.52400005
0.32160583 0.1736519 0.52500004
0.32275701 0.17282656 0.52700001
0.32268414 0.17134093 0.52700001
0.32261238 0.16985655 0.52700001
0.32254165 0.16837335 0.52700001
0.32247204 0.16689132 0.52700001
0.32301521 0.16572435 0.528
0.32294753 0.16424185 0.528
0.32349247 0.16306874 0.52900004
0.32342672 0.16158567 0.52900004
0.32397321 0.16040635 0.53000003
0.32390937 0.15892261 0.53000003
0.32384652 0.15743995 0.53000003
0.32439548 0.15625255 0.53100002
0.32494521 0.1550606 0.53200001
0.32610634 0.15415274 0.53400004
0.327268 0.15323471 0.53600001
0.32659876 0.15145719 0.53500003
0.32776168 0.15052712 0.537
0.32709435 0.14875425 0.53600001
0.32886875 0.14808688 0.53900003
0.31712189 0.20484756 0.51700002
0.31814912 0.20264573 0.51900005
0.31743866 0.2007637 0.51800001
0.31734261 0.19927388 0.51800001
0.3172479 0.19778578 0.51800001
0.31899142 0.19743627 0.52100003
0.319511 0.19631901 0.52200001
0.31941965 0.19482449 0.52200001
0.32055315 0.19407231 0.52400005
0.3198525 0.19220775 0.523
0.3203764 0.19107984 0.52400005
0.32090116 0.18994771 0.52500004
0.32142687 0.18881144 0.52600002
0.32134259 0.18731484 0.52600002
0.32125953 0.18581973 0.52600002
0.3205671 0.18397564 0.52500004
0.32048666 0.18248627 0.52500004
0.32101768 0.181343 0.52600002
0.32032928 0.17951161 0.52500004
0.32086235 0.17836541 0.52600002
0.3195667 0.17620608 0.52400005
0.32071161 0.17539312 0.52600002
0.32063788 0.17390892 0.52600002
0.32178417 0.17308156 0.528
0.3217124 0.17159422 0.528
0.32164168 0.17010808 0.528
0.32218114 0.16894253 0.52900004
0.32272133 0.16777249 0.53000003
0.3232623 0.16659799 0.53100002
0.32319543 0.1651081 0.53100002
0.32373807 0.16392747 0.53200001
0.3236731 0.16243699 0.53200001
0.32300085 0.16064507 0.53100002
0.322938 0.15915953 0.53100002
0.32226804 0.15737809 0.53000003
0.32342306 0.15648569 0.53200001
0.3251864 0.15587449 0.53500003
0.32634231 0.15495898 0.537
0.32689115 0.15374753 0.53800005
0.32683319 0.15224844 0.53800005
0.32799089 0.15131073 0.54000002
0.32793453 0.14980796 0.54000002
0.32909343 0.14885537 0.54200006
0.3167603 0.20553961 0.51900005
0.31666145 0.20404299 0.51900005
0.31656393 0.20254816 0.51900005
0.31646785 0.20105511 0.51900005
0.31698272 0.19994833 0.52000004
0.31749862 0.1988375 0.52100003
0.31801552 0.19772263 0.52200001
0.31792432 0.19622777 0.52200001
0.3178345 0.19473454 0.52200001
0.31896338 0.19398336 0.52400005
0.31948429 0.19285497 0.52500004
0.31939784 0.19135793 0.52500004
0.31992084 0.19022408 0.52600002
0.32105282 0.18944483 0.528
0.3203617 0.18758784 0.52700001
0.32027987 0.18609108 0.52700001
0.32019925 0.18459579 0.52700001
0.32011986 0.18310192 0.52700001
0.32004157 0.18160942 0.52700001
0.3199645 0.18011829 0.52700001
0.32049552 0.17896743 0.528
0.32102746 0.17781226 0.52900004
0.32216692 0.17698602 0.53100002
0.32209378 0.17548881 0.53100002
0.32202172 0.17399287 0.53100002
0.32255706 0.172823 0.53200001
0.32248703 0.17132668 0.53200001
0.32363018 0.17047004 0.53400004
0.32356206 0.16897047 0.53400004
0.32349491 0.16747205 0.53400004
0.32282314 0.16566394 0.53300005
0.32336372 0.16447857 0.53400004
0.32269418 0.16267832 0.53300005
0.3220259 0.16088466 0.53200001
0.32256922 0.15969694 0.53300005
0.32311323 0.15850462 0.53400004
0.32426289 0.15760177 0.53600001
0.32541317 0.15668879 0.53800005
0.32590115 0.15397526 0.53900003
0.32644862 0.15275721 0.54000002
0.32820565 0.15209471 0.54300004
0.32875428 0.15086181 0.54400003
0.31578308 0.20583662 0.52000004
0.31507847 0.20394558 0.51900005
0.31680322 0.20362239 0.52200001
0.31610143 0.2017349 0.52100003
0.31722096 0.20100789 0.523
0.31773484 0.19988966 0.52400005
0.31885585 0.19914594 0.52600002
0.31815943 0.19726524 0.52500004
0.3180705 0.19576474 0.52500004
0.31858858 0.1946359 0.52600002
0.31910759 0.1935029 0.52700001
0.31962758 0.19236577 0.528
0.32075366 0.19158596 0.53000003
0.32067034 0.19007899 0.53000003
0.3205882 0.18857349 0.53000003
0.32111201 0.18742239 0.53100002
0.32103211 0.18591695 0.53100002
0.3209534 0.18441293 0.53100002
0.32027158 0.18256579 0.53000003
0.31959122 0.18072569 0.52900004
0.32072425 0.17990899 0.53100002
0.32185787 0.17908232 0.53300005
0.32178462 0.17757931 0.53300005
0.32171243 0.17607756 0.53300005
0.32164136 0.17457707 0.53300005
0.32277796 0.17372724 0.53500003
0.32331192 0.17254545 0.53600001
0.32384673 0.17135924 0.537
0.32317641 0.16953599 0.53600001
0.32250735 0.16771948 0.53500003
0.3218396 0.16590972 0.53400004
0.32237819 0.16472243 0.53500003
0.32291755 0.16353065 0.53600001
0.32225296 0.16172972 0.53500003
0.3221918 0.16023494 0.53500003
0.3221316 0.15874118 0.53500003
0.32448035 0.15842409 0.53900003
0.32562536 0.15750344 0.54100001
0.32611185 0.15477496 0.54200006
0.32786021 0.1541149 0.54500002
0.32840592 0.15287907 0.546
0.32895231 0.15163863 0.54700005
0.31480354 0.20613483 0.52100003
0.31410334 0.20424248 0.52000004
0.31582031 0.20391728 0.523
0.31572658 0.2024155 0.523
0.31804824 0.20245206 0.52700001
0.31855986 0.20132352 0.528
0.31907246 0.20019095 0.52900004
0.31838003 0.19830312 0.528
0.31829205 0.19679536 0.528
0.31880808 0.19565907 0.52900004
0.319325 0.19451866 0.53000003
0.31863821 0.19264573 0.52900004
0.31975949 0.19186397 0.53100002
0.32027939 0.19071387 0.53200001
0.32019827 0.1892039 0.53200001
0.32132187 0.18840103 0.53400004
0.32184443 0.18723825 0.53500003
0.32116506 0.1853769 0.53400004
0.31988576 0.18317828 0.53200001
0.31981054 0.18167529 0.53200001
0.32033744 0.18051229 0.53300005
0.32146606 0.17968079 0.53500003
0.32259521 0.17883931 0.537
0.32312438 0.17765763 0.53800005
0.32245332 0.17581673 0.537
0.32298437 0.17463189 0.53800005
0.32291597 0.17312081 0.53800005
0.32344869 0.1719299 0.53900003
0.3233822 0.17041837 0.53900003
0.32331675 0.16890796 0.53900003
0.32205284 0.16677754 0.537
0.32258931 0.16558273 0.53800005
0.32252693 0.16407844 0.53800005
0.32306495 0.16287737 0.53900003
0.32240513 0.16107298 0.53800005
0.32294479 0.15986837 0.53900003
0.32468328 0.15924683 0.54200006
0.32522419 0.1580275 0.54300004
0.32576573 0.15680356 0.54400003
0.32630804 0.15557504 0.54500002
0.32804826 0.15490721 0.54800004
0.32799318 0.15338396 0.54800004
0.3285374 0.15213872 0.54900002
0.32788569 0.15034014 0.54800004
0.31492889 0.20571837 0.52400005
0.31543595 0.20460308 0.52500004
0.31534335 0.2030969 0.52500004
0.31645304 0.20236041 0.52700001
0.31696311 0.20123301 0.528
0.31747416 0.20010158 0.52900004
0.31798613 0.19896606 0.53000003
0.31909889 0.19819899 0.53200001
0.31901303 0.19668269 0.53200001
0.31892839 0.19516797 0.53200001
0.31824568 0.19329076 0.53100002
0.31996122 0.19286543 0.53400004
0.32047898 0.19170786 0.53500003
0.32039881 0.19019058 0.53500003
0.32031977 0.18867475 0.53500003
0.32024199 0.18716034 0.53500003
0.32016528 0.18564732 0.53500003
0.32008976 0.18413565 0.53500003
0.32121173 0.18330802 0.537
0.32173619 0.1821319 0.53800005
0.32166365 0.18061572 0.53800005
0.3221899 0.17943372 0.53900003
0.32211936 0.17791724 0.53900003
0.32324487 0.17705657 0.54100001
0.32317623 0.17553693 0.54100001
0.32310864 0.17401849 0.54100001
0.3223795 0.17066903 0.54000002
0.32171819 0.1688436 0.53900003
0.32165486 0.1673353 0.53900003
0.32218918 0.16613576 0.54000002
0.32391733 0.16554144 0.54300004
0.32326007 0.16372311 0.54200006
0.32320023 0.16221067 0.54200006
0.3231414 0.16069926 0.54200006
0.32367954 0.15948255 0.54300004
0.32481438 0.15855214 0.54500002
0.3259497 0.15761159 0.54700005
0.32708549 0.15666085 0.54900002
0.32822183 0.15569994 0.551
0.32816747 0.1541692 0.551
0.32811397 0.1526394 0.551
0.31564081 0.20567918 0.528
0.31614685 0.20455244 0.52900004
0.31545892 0.20265403 0.528
0.31596726 0.20152494 0.52900004
0.31528232 0.19963558 0.528
0.31579292 0.19850406 0.52900004
0.3192035 0.19770677 0.53500003
0.31911975 0.19618475 0.53500003
0.31844097 0.1943004 0.53400004
0.31895605 0.19314526 0.53500003
0.31947201 0.19198592 0.53600001
0.31939301 0.190467 0.53600001
0.31991091 0.18930203 0.537
0.32042971 0.18813281 0.53800005
0.32035393 0.18661247 0.53800005
0.32027927 0.18509346 0.53800005
0.32139605 0.18425821 0.54000002
0.32191837 0.18307459 0.54100001
0.32184666 0.18155105 0.54100001
0.3223708 0.18036158 0.54200006
0.32289574 0.17916769 0.54300004
0.32342148 0.17796944 0.54400003
0.32335362 0.17644241 0.54400003
0.32137412 0.17092061 0.54100001
0.3207168 0.16909347 0.54000002
0.32124826 0.16789369 0.54100001
0.32178053 0.16668944 0.54200006
0.32290703 0.16578539 0.54400003
0.32344058 0.16456924 0.54500002
0.32278818 0.16275021 0.54400003
0.32273015 0.16123414 0.54400003
0.32326615 0.16001266 0.54500002
0.32439595 0.15907742 0.54700005
0.32493326 0.15784395 0.54800004
0.32606408 0.15689111 0.55000001
0.32719544 0.15592811 0.55200005
0.32714194 0.15439548 0.55200005
0.32827443 0.15341759 0.55400002
0.31523639 0.20636639 0.53000003
0.31574056 0.20523508 0.53100002
0.31446236 0.20294881 0.52900004
0.31378037 0.20105639 0.528
0.31369412 0.19954927 0.528
0.3147971 0.19879393 0.53000003
0.31870314 0.19683544 0.537
0.31862172 0.19531049 0.537
0.3185415 0.19378702 0.537
0.31905559 0.19262306 0.53800005
0.31897759 0.19109966 0.53800005
0.31949353 0.18993005 0.53900003
0.31941772 0.18840663 0.53900003
0.31934306 0.18688458 0.53900003
0.32045418 0.18605167 0.54100001
0.32097372 0.18486775 0.54200006
0.32267815 0.18435599 0.54500002
0.3226071 0.1828223 0.54500002
0.32194537 0.1809572 0.54400003
0.32187656 0.1794288 0.54400003
0.32240042 0.17822868 0.54500002
0.32030365 0.16965728 0.54200006
0.32083306 0.16845275 0.54300004
0.32136318 0.16724373 0.54400003
0.32307529 0.16663948 0.54700005
0.32301614 0.16511397 0.54700005
0.3229579 0.16358945 0.54700005
0.32290056 0.16206594 0.54700005
0.32343438 0.16083691 0.54800004
0.32455897 0.15989397 0.55000001
0.32568407 0.1589409 0.55200005
0.32562983 0.15740733 0.55200005
0.32675606 0.15643942 0.55400002
0.3272931 0.15518172 0.55500001
0.31509957 0.21163139 0.53200001
0.3155061 0.20897035 0.53300005
0.31541529 0.20744359 0.53300005
0.3153258 0.20591852 0.53300005
0.3140547 0.20362815 0.53100002
0.31337684 0.2017315 0.53000003
0.3132917 0.20021994 0.53000003
0.31379873 0.19908489 0.53100002
0.31607917 0.19906196 0.53500003
0.31819767 0.19595748 0.53900003
0.31811845 0.19442953 0.53900003
0.31863055 0.19326092 0.54000002
0.31855357 0.19173303 0.54000002
0.31906754 0.19055878 0.54100001
0.3184031 0.18868144 0.54000002
0.31891906 0.18750428 0.54100001
0.31943589 0.18632284 0.54200006
0.32054272 0.18547799 0.54400003
0.32106107 0.18428503 0.54500002
0.32216918 0.18342306 0.54700005
0.3215113 0.18155353 0.546
0.32203224 0.1803503 0.54700005
0.32078812 0.17816195 0.54500002
0.32229593 0.17300493 0.54800004
0.32105786 0.17084748 0.546
0.32099703 0.16932254 0.546
0.3221128 0.16841331 0.54800004
0.32264131 0.16718945 0.54900002
0.32258299 0.16565926 0.54900002
0.32311305 0.16442907 0.55000001
0.32364383 0.16319428 0.551
0.32476258 0.16224833 0.55300003
0.32529467 0.16100159 0.55400002
0.32582742 0.15975024 0.55500001
0.32577386 0.15820919 0.55500001
0.32572117 0.15666905 0.55500001
0.32625616 0.15540934 0.55600005
0.31467468 0.21233334 0.53400004
0.31399339 0.2104068 0.53300005
0.3144916 0.20927148 0.53400004
0.31440207 0.20774318 0.53400004
0.31431386 0.20621656 0.53400004
0.31363848 0.2043083 0.53300005
0.31355301 0.20278783 0.53300005
0.31346878 0.20126897 0.53300005
0.31397375 0.20012647 0.53400004
0.31506747 0.19935176 0.53600001
0.31827405 0.19543336 0.54200006
0.31878406 0.19425729 0.54300004
0.31812099 0.19236715 0.54200006
0.31804621 0.19083616 0.54200006
0.31797251 0.18930651 0.54200006
0.31907299 0.18847117 0.54400003
0.31958768 0.1872822 0.54500002
0.32010317 0.18608892 0.546
0.32061952 0.1848913 0.54700005
0.32113665 0.18368931 0.54800004
0.32048282 0.18181819 0.54700005
0.3210018 0.18061303 0.54800004
0.32035026 0.17874995 0.54700005
0.32185283 0.17357413 0.55000001
0.32062152 0.17141232 0.54800004
0.32056156 0.16988276 0.54800004
0.32167223 0.16896865 0.55000001
0.32219869 0.16774003 0.551
0.3221412 0.1662052 0.551
0.32266918 0.16497025 0.55200005
0.32378224 0.16402678 0.55400002
0.32489589 0.16307318 0.55600005
0.32484147 0.16152835 0.55600005
0.32537207 0.16027221 0.55700004
0.32590339 0.15901147 0.55800003
0.31365505 0.21263865 0.53500003
0.31356415 0.21110532 0.53500003
0.31406051 0.20996545 0.53600001
0.31397209 0.20843276 0.53600001
0.31447056 0.20728771 0.537
0.31438461 0.20575549 0.537
0.31429988 0.2042249 0.537
0.31421643 0.20269589 0.537
0.31413421 0.20116849 0.537
0.31405318 0.19964261 0.537
0.31572744 0.19922508 0.54000002
0.3166624 0.19535631 0.54200006
0.31775481 0.19453889 0.54400003
0.31767982 0.19300196 0.54400003
0.31877369 0.19217038 0.546
0.31870073 0.19063057 0.546
0.31979603 0.1897848 0.54800004
0.31914154 0.18789852 0.54700005
0.32023835 0.18704125 0.54900002
0.32016936 0.18549825 0.54900002
0.32126752 0.18462665 0.551
0.32061747 0.18274826 0.55000001
0.32171711 0.1818651 0.55200005
0.32048649 0.17966525 0.55000001
0.32087994 0.1753677 0.551
0.32081878 0.17382854 0.551
0.31959435 0.17166509 0.54900002
0.32011738 0.17044356 0.55000001
0.32122308 0.16952462 0.55200005
0.32174742 0.16829127 0.55300003
0.32169074 0.16675177 0.55300003
0.3222166 0.16551204 0.55400002
0.32332468 0.16456373 0.55600005
0.32327038 0.16301882 0.55600005
0.32379827 0.16176529 0.55700004
0.32374564 0.16021951 0.55700004
0.32543722 0.15952925 0.56
0.31321609 0.21334237 0.537
0.31312633 0.21180464 0.537
0.31362084 0.21066025 0.53800005
0.31353354 0.20912313 0.53800005
0.31403017 0.20797352 0.53900003
0.31452769 0.20681985 0.54000002
0.31502619 0.2056621 0.54100001
0.31436136 0.20374568 0.54000002
0.31428006 0.20221096 0.54000002
0.31419995 0.20067777 0.54000002
0.31528446 0.1998837 0.54200006
0.31563523 0.19564086 0.54300004
0.31614169 0.194464 0.54400003
0.31723002 0.19363752 0.546
0.31889981 0.19315296 0.54900002
0.31940845 0.19195482 0.55000001
0.31933728 0.19040622 0.55000001
0.31868672 0.18851553 0.54900002
0.31861788 0.18697232 0.54900002
0.31913027 0.18576811 0.55000001
0.32022366 0.18489453 0.55200005
0.32015756 0.18334664 0.55200005
0.32067233 0.18212929 0.55300003
0.32054499 0.17903386 0.55300003
0.31990325 0.17716689 0.55200005
0.31984216 0.17562482 0.55200005
0.31978199 0.17408381 0.55200005
0.3191435 0.1722313 0.551
0.31908536 0.17069523 0.551
0.32018614 0.16977422 0.55300003
0.32070848 0.16853887 0.55400002
0.32123151 0.16729894 0.55500001
0.32117656 0.16575578 0.55500001
0.32227969 0.16480537 0.55700004
0.32280481 0.16355167 0.55800003
0.32333055 0.16229336 0.55900002
0.32385701 0.16103043 0.56
0.32496235 0.16004765 0.56200004
0.31169766 0.21479082 0.537
0.31276861 0.21404693 0.53900003
0.31326005 0.21289907 0.54000002
0.3137525 0.2117472 0.54100001
0.31308636 0.20981427 0.54000002
0.31358108 0.20866007 0.54100001
0.31349728 0.20711896 0.54100001
0.31399402 0.2059595 0.54200006
0.31391257 0.20441876 0.54200006
0.31383231 0.20287958 0.54200006
0.3143321 0.20171338 0.54300004
0.31425411 0.20017441 0.54300004
0.31417727 0.19863692 0.54300004
0.31460533 0.19592641 0.54400003
0.31677154 0.19427378 0.54800004
0.31843343 0.1937843 0.551
0.31951788 0.19293037 0.55300003
0.31886992 0.19102837 0.55200005
0.31880081 0.18947649 0.55200005
0.31815529 0.18758544 0.551
0.31924304 0.18671423 0.55300003
0.31975412 0.18549816 0.55400002
0.32026598 0.18427771 0.55500001
0.32020167 0.18272364 0.55500001
0.32013839 0.18117073 0.55500001
0.3194994 0.17929533 0.55400002
0.3188616 0.1774267 0.55300003
0.31822497 0.17556469 0.55200005
0.319895 0.17497043 0.55500001
0.31983653 0.17342308 0.55500001
0.32035521 0.17218649 0.55600005
0.31972235 0.17033154 0.55500001
0.3208186 0.16939555 0.55700004
0.32133946 0.16814807 0.55800003
0.32186094 0.166896 0.55900002
0.32180747 0.16534357 0.55900002
0.32233047 0.16408511 0.56
0.32285413 0.16282202 0.56100005
0.32337844 0.16155429 0.56200004
0.32390341 0.16028193 0.56300002
0.31182384 0.2159007 0.54000002
0.31173515 0.21435529 0.54000002
0.31222492 0.21320572 0.54100001
0.31271568 0.21205217 0.54200006
0.31263059 0.21050622 0.54200006
0.31254676 0.20896189 0.54200006
0.31304064 0.20780186 0.54300004
0.31353551 0.20663777 0.54400003
0.3134551 0.20509255 0.54400003
0.31279981 0.20317474 0.54300004
0.31329784 0.20200677 0.54400003
0.31322095 0.20046611 0.54400003
0.31429651 0.1996583 0.546
0.31422171 0.19811493 0.546
0.31529877 0.19729304 0.54800004
0.31623352 0.19336164 0.55000001
0.31788823 0.19286013 0.55300003
0.31781912 0.19130524 0.55300003
0.31832567 0.19009477 0.55400002
0.31768408 0.1881993 0.55300003
0.31819245 0.18698572 0.55400002
0.31870165 0.18576775 0.55500001
0.31921163 0.18454543 0.55600005
0.31914836 0.18298955 0.55600005
0.31908607 0.18143484 0.55600005
0.31845096 0.17955773 0.55500001
0.31896445 0.17832881 0.55600005
0.31890503 0.17677745 0.55600005
0.31942007 0.17554234 0.55700004
0.31993577 0.17430271 0.55800003
0.32045218 0.17305857 0.55900002
0.31982303 0.17119628 0.55800003
0.32034108 0.16994861 0.55900002
0.32085979 0.16869636 0.56
0.32252496 0.16803646 0.56300002
0.32247207 0.16647379 0.56300002
0.32242009 0.16491206 0.56300002
0.32294151 0.16364141 0.56400001
0.31078652 0.21621175 0.54100001
0.31069911 0.2146648 0.54100001
0.31176132 0.21390745 0.54300004
0.31225017 0.21274927 0.54400003
0.31216615 0.21119888 0.54400003
0.31208339 0.2096501 0.54400003
0.31200188 0.20810297 0.54400003
0.31249493 0.20693709 0.54500002
0.31298894 0.20576712 0.546
0.31233767 0.20384495 0.54500002
0.31283376 0.20267235 0.546
0.31275791 0.2011272 0.546
0.31325594 0.19994912 0.54700005
0.31432727 0.19912945 0.54900002
0.31539926 0.19829993 0.551
0.31575862 0.19399479 0.55200005
0.31683356 0.19313972 0.55400002
0.3173373 0.19192888 0.55500001
0.31841353 0.19105676 0.55700004
0.31777567 0.18915403 0.55600005
0.31771052 0.18759555 0.55600005
0.31764635 0.18603829 0.55600005
0.31758323 0.18448222 0.55600005
0.31809214 0.18325633 0.55700004
0.31803083 0.18169981 0.55700004
0.31854135 0.18046781 0.55800003
0.31905264 0.17923136 0.55900002
0.31842333 0.17735474 0.55800003
0.31893626 0.17611487 0.55900002
0.3194499 0.17487049 0.56
0.31996429 0.17362159 0.56100005
0.3199091 0.17206143 0.56100005
0.32042494 0.17080621 0.56200004
0.32208154 0.1701487 0.565
0.32259861 0.16887876 0.56600004
0.32254642 0.16730863 0.56600004
0.3224951 0.16573943 0.56600004
0.32301432 0.16446121 0.56700003
0.31023172 0.21537204 0.54300004
0.31120497 0.21305625 0.54500002
0.31226397 0.21228044 0.54700005
0.31104064 0.20995389 0.54500002
0.31210148 0.20916992 0.54700005
0.31202206 0.20761704 0.54700005
0.31308442 0.20681916 0.54900002
0.312437 0.20488983 0.54800004
0.31293097 0.20370975 0.54900002
0.31228614 0.20178905 0.54800004
0.3133519 0.20097166 0.55000001
0.31384864 0.19978182 0.551
0.31434628 0.19858776 0.55200005
0.31427538 0.1970325 0.55200005
0.31470594 0.19427732 0.55300003
0.31634504 0.19376875 0.55600005
0.31684679 0.19255325 0.55700004
0.317918 0.19167627 0.55900002
0.31728405 0.18976909 0.55800003
0.31721979 0.18820603 0.55800003
0.31658813 0.18630967 0.55700004
0.31652603 0.18475179 0.55700004
0.31646484 0.1831951 0.55700004
0.31754071 0.18229173 0.55900002
0.31804919 0.18105501 0.56
0.31912625 0.18013436 0.56200004
0.31850061 0.1782504 0.56100005
0.31901136 0.177003 0.56200004
0.3195228 0.17575108 0.56300002
0.32003498 0.17449461 0.56400001
0.3199805 0.17292699 0.56400001
0.32049415 0.17166424 0.565
0.32214281 0.17099898 0.56800002
0.31154045 0.20829771 0.54900002
0.3125979 0.20749505 0.551
0.31252167 0.20593511 0.551
0.31301358 0.2047476 0.55200005
0.31293947 0.20318779 0.55200005
0.31343326 0.2019947 0.55300003
0.31336129 0.20043492 0.55300003
0.3138569 0.1992362 0.55400002
0.31378695 0.19767638 0.55400002
0.31584772 0.19439848 0.55800003
0.31634745 0.19317827 0.55900002
0.31741384 0.19229652 0.56100005
0.31734934 0.19072482 0.56100005
0.31672028 0.18881717 0.56
0.31609246 0.18691634 0.55900002
0.31603119 0.18535385 0.55900002
0.31653613 0.18412128 0.56
0.31817213 0.18353632 0.56300002
0.31811327 0.18196607 0.56300002
0.31862029 0.18071733 0.56400001
0.31743363 0.17851122 0.56200004
0.31850711 0.17757668 0.56400001
0.31845185 0.17600793 0.56400001
0.31952658 0.1750588 0.56600004
0.32003734 0.173793 0.56700003
0.31293616 0.20265304 0.55500001
0.31230143 0.20072642 0.55400002
0.31335881 0.19988534 0.55600005
0.31272635 0.19796427 0.55500001
0.31434861 0.1974657 0.55800003
0.3159048 0.19537716 0.56100005
0.31583944 0.19380401 0.56100005
0.31746367 0.19326006 0.56400001
0.31683725 0.19134113 0.56300002
0.31677467 0.18976606 0.56300002
0.31615055 0.18785794 0.56200004
0.31665248 0.18661951 0.56300002
0.31659284 0.18504795 0.56300002
0.31822082 0.18445525 0.56600004
0.31816277 0.18287757 0.56600004
0.31866762 0.1816213 0.56700003
0.31748742 0.17940792 0.565
0.31855586 0.17846577 0.56700003
0.31793958 0.17657758 0.56600004
0.3190093 0.17562357 0.56800002
0.319518 0.17435302 0.56900001
0.31123865 0.20101887 0.55500001
0.31285194 0.20053518 0.55800003
0.31482685 0.19566001 0.56200004
0.3147625 0.19408508 0.56200004
0.31637901 0.19353899 0.565
0.31631634 0.1919581 0.565
0.31625465 0.19037844 0.565
0.31563434 0.1884658 0.56400001
0.31613421 0.18722263 0.565
0.31719428 0.18630363 0.56700003
0.31769556 0.18504879 0.56800002
0.31763834 0.18346646 0.56800002
0.31758204 0.18188523 0.56800002
0.31640857 0.17967021 0.56600004
0.3174721 0.17872594 0.56800002
0.31741849 0.17714784 0.56800002
0.31904197 0.17649807 0.57100004
0.3133181 0.19874738 0.56200004
0.31381023 0.19752173 0.56300002
0.31430313 0.19629176 0.56400001
0.31479686 0.19505747 0.565
0.3152914 0.19381884 0.56600004
0.31522971 0.19223613 0.56600004
0.31516904 0.19065465 0.56600004
0.31510931 0.18907434 0.56600004
0.31505051 0.18749519 0.56600004
0.31554922 0.18624562 0.56700003
0.31716147 0.18564302 0.57000005
0.31710511 0.18405606 0.57000005
0.31816208 0.18311039 0.57200003
0.31643888 0.18056796 0.56900001
0.31749737 0.17961606 0.57100004
0.31688851 0.17771873 0.57000005
0.3185041 0.17706399 0.57300001
0.31181175 0.20183699 0.56200004
0.31230026 0.20061524 0.56300002
0.31334418 0.19974276 0.565
0.31327972 0.19815889 0.565
0.3132163 0.19657631 0.565
0.31315386 0.19499497 0.565
0.31364658 0.19375722 0.56600004
0.31414005 0.19251503 0.56700003
0.31408036 0.19093172 0.56700003
0.31402159 0.18934956 0.56700003
0.31451747 0.18809973 0.56800002
0.31501409 0.18684542 0.56900001
0.31606498 0.18591227 0.57100004
0.31600955 0.18432343 0.57100004
0.31706166 0.18337569 0.57300001
0.31645456 0.18146616 0.57200003
0.31750792 0.18050663 0.574
0.31800881 0.17922531 0.57500005
0.31127837 0.20248891 0.56400001
0.31121314 0.20090628 0.56400001
0.31170055 0.19967835 0.565
0.31163725 0.19809552 0.565
0.31212643 0.19686176 0.56600004
0.31261635 0.19562365 0.56700003
0.31310701 0.19438112 0.56800002
0.31359842 0.19313422 0.56900001
0.31353959 0.19154629 0.56900001
0.31403261 0.19029336 0.57000005
0.31397557 0.18870492 0.57000005
0.31502083 0.18777412 0.57200003
0.31606668 0.18683332 0.574
0.31601197 0.18523705 0.574
0.31650859 0.18396178 0.57500005
0.31700587 0.18268196 0.57600003
0.30553693 0.21797787 0.55500001
0.30546078 0.21640433 0.55500001
0.3053858 0.21483235 0.55500001
0.30531198 0.21326193 0.55500001
0.30578929 0.21207449 0.55600005
0.30571762 0.21050425 0.55600005
0.30722633 0.20848708 0.55900002
0.30922022 0.20522635 0.56300002
0.31080151 0.20473006 0.56600004
0.31128517 0.20350043 0.56700003
0.31122071 0.20191044 0.56700003
0.31170604 0.200675 0.56800002
0.31109485 0.19873427 0.56700003
0.311582 0.19749577 0.56800002
0.31261835 0.19659786 0.57000005
0.31310689 0.19534785 0.57100004
0.31414443 0.19443272 0.57300001
0.31408623 0.19283459 0.57300001
0.31402901 0.19123758 0.57300001
0.31397265 0.1896417 0.57300001
0.31556076 0.18903148 0.57600003
0.31550598 0.18742946 0.57600003
0.31599969 0.18615113 0.57700002
0.31594658 0.18454845 0.57700002
0.30461234 0.22144967 0.55600005
0.30453497 0.21987125 0.55600005
0.30555394 0.21907964 0.55800003
0.30547869 0.21749875 0.55800003
0.30649921 0.21669336 0.56
0.30587879 0.21472582 0.55900002
0.30580685 0.21314676 0.55900002
0.30573598 0.21156915 0.55900002
0.30621305 0.21036871 0.56
0.30723765 0.20953691 0.56200004
0.30771628 0.20832524 0.56300002
0.30928865 0.20784375 0.56600004
0.30976865 0.20661798 0.56700003
0.30970329 0.20502636 0.56700003
0.31018505 0.20379484 0.56800002
0.31121364 0.20291504 0.57000005
0.31169686 0.20167212 0.57100004
0.31108937 0.19972409 0.57000005
0.31157434 0.19847809 0.57100004
0.31315124 0.19791734 0.574
0.31363755 0.196657 0.57500005
0.31466997 0.19573149 0.57700002
0.31461242 0.19412312 0.57700002
0.31510097 0.19284955 0.57800001
0.31450009 0.1909098 0.57700002
0.31499031 0.18963289 0.57800001
0.31602609 0.18867683 0.58000004
0.30431008 0.22692743 0.55800003
0.3047753 0.22574331 0.55900002
0.30415136 0.22375323 0.55800003
0.30407381 0.22216865 0.55800003
0.30454227 0.22098105 0.55900002
0.30501163 0.21978937 0.56
0.30602643 0.21898331 0.56200004
0.30595309 0.21739385 0.56200004
0.30588081 0.2158059 0.56200004
0.30526558 0.21383831 0.56100005
0.30628371 0.21301289 0.56300002
0.30675858 0.21180212 0.56400001
0.30723423 0.21058716 0.565
0.3077108 0.20936802 0.56600004
0.30927521 0.20887879 0.56900001
0.30920976 0.20728125 0.56900001
0.30914533 0.20568503 0.56900001
0.30962509 0.20444885 0.57000005
0.31119183 0.2039201 0.57300001
0.31221595 0.20302276 0.57500005
0.31269777 0.20176521 0.57600003
0.31263754 0.20015581 0.57600003
0.31366366 0.19923705 0.57800001
0.31360519 0.19762449 0.57800001
0.31463262 0.19669136 0.58000004
0.31457582 0.19507557 0.58000004
0.31506222 0.19379447 0.58100003
0.31446499 0.1918474 0.58000004
0.3154951 0.19089092 0.58200002
0.30237523 0.23120302 0.55700004
0.3028357 0.23002613 0.55800003
0.30275458 0.22843592 0.55800003
0.30375955 0.22766057 0.56
0.30422297 0.22647187 0.56100005
0.30414513 0.22487833 0.56100005
0.30406845 0.22328644 0.56100005
0.30399299 0.22169618 0.56100005
0.30500215 0.22089224 0.56300002
0.30547035 0.21968901 0.56400001
0.30539796 0.21809503 0.56400001
0.3053267 0.21650256 0.56400001
0.30633906 0.21567374 0.56600004
0.30626974 0.21407862 0.56600004
0.30728349 0.21323577 0.56800002
0.30721614 0.21163791 0.56800002
0.30769056 0.21041124 0.56900001
0.30870649 0.20954734 0.57100004
0.30918244 0.2083094 0.57200003
0.30911878 0.20670579 0.57200003
0.30905616 0.20510352 0.57200003
0.31061512 0.20456985 0.57500005
0.31217444 0.20402066 0.57800001
0.31319413 0.20310579 0.58000004
0.31313458 0.2014862 0.58000004
0.3136158 0.20021243 0.58100003
0.31409776 0.19893427 0.58200002
0.3151201 0.19799073 0.58400005
0.31506395 0.19636473 0.58400005
0.31554815 0.19507331 0.58500004
0.3154937 0.19344677 0.58500004
0.30278724 0.24037541 0.56
0.30323997 0.23919605 0.56100005
0.30261296 0.23716582 0.56
0.30198759 0.23514327 0.55900002
0.30136383 0.23312829 0.55800003
0.30182147 0.2319507 0.55900002
0.30281991 0.23118132 0.56100005
0.30273968 0.22958383 0.56100005
0.30320022 0.22839449 0.56200004
0.30366167 0.22720116 0.56300002
0.30358484 0.22560313 0.56300002
0.30297014 0.22360888 0.56200004
0.30343476 0.22241201 0.56300002
0.3044391 0.22160329 0.565
0.30490538 0.22039546 0.56600004
0.30483398 0.21879697 0.56600004
0.30530214 0.21758372 0.56700003
0.30630949 0.21674724 0.56900001
0.30677924 0.21552289 0.57000005
0.30724981 0.21429433 0.57100004
0.30718324 0.21268912 0.57100004
0.30819348 0.21182463 0.57300001
0.30920428 0.21095031 0.57500005
0.30967805 0.20970206 0.57600003
0.31015259 0.20844954 0.57700002
0.31009051 0.20683426 0.57700002
0.31110412 0.20593162 0.57900006
0.31211823 0.20501904 0.58100003
0.31313288 0.20409654 0.583
0.31361115 0.20281684 0.58400005
0.31409016 0.20153278 0.58500004
0.30221626 0.24114583 0.56200004
0.30212957 0.23953569 0.56200004
0.30258167 0.23835081 0.56300002
0.30196014 0.23632112 0.56200004
0.30241451 0.23513427 0.56300002
0.30233285 0.23352878 0.56300002
0.30332619 0.23274896 0.565
0.30217329 0.23032311 0.56300002
0.30209538 0.2287229 0.56300002
0.30201867 0.22712439 0.56300002
0.30247942 0.22592813 0.56400001
0.30294108 0.22472784 0.565
0.30340371 0.22352351 0.56600004
0.30440307 0.22270721 0.56800002
0.30433148 0.22110263 0.56800002
0.3047967 0.21988603 0.56900001
0.30526283 0.21866533 0.57000005
0.30626518 0.21782124 0.57200003
0.30619755 0.21621142 0.57200003
0.30666617 0.21497819 0.57300001
0.30820581 0.21448551 0.57600003
0.30867583 0.21323824 0.57700002
0.30118838 0.24310176 0.56300002
0.30217123 0.24234596 0.565
0.30155084 0.24030249 0.56400001
0.30200106 0.23911306 0.565
0.30138358 0.2370791 0.56400001
0.30183607 0.23588766 0.565
0.30175549 0.23427771 0.565
0.30274403 0.23349316 0.56700003
0.30213183 0.2314721 0.56600004
0.30152112 0.22945845 0.565
0.30144539 0.22785544 0.565
0.30243769 0.22705503 0.56700003
0.3028973 0.22584729 0.56800002
0.30335781 0.22463545 0.56900001
0.30435228 0.22381157 0.57100004
0.30481446 0.22258879 0.57200003
0.30527747 0.22136191 0.57300001
0.30574137 0.22013089 0.574
0.30567363 0.21851504 0.574
0.3056069 0.21690063 0.574
0.30660588 0.21603782 0.57600003
0.29962412 0.24462932 0.56300002
0.30060148 0.2438783 0.565
0.30211151 0.24354662 0.56800002
0.30202672 0.24192195 0.56800002
0.3024748 0.24072221 0.56900001
0.30132958 0.23825805 0.56700003
0.30124879 0.23664184 0.56700003
0.30116925 0.23502745 0.56700003
0.30215296 0.23423813 0.56900001
0.3015447 0.23221275 0.56800002
0.3014687 0.23060076 0.56800002
0.30139384 0.22899042 0.56800002
0.30185068 0.22778206 0.56900001
0.30230841 0.22656971 0.57000005
0.30329725 0.22574791 0.57200003
0.30428669 0.22491641 0.574
0.30474687 0.22368617 0.57500005
0.30467796 0.22206563 0.57500005
0.29956236 0.24584575 0.56600004
0.30000573 0.24465568 0.56700003
0.30203703 0.24474777 0.57100004
0.3019532 0.24311581 0.57100004
0.30187064 0.24148574 0.57100004
0.30073228 0.23901743 0.56900001
0.30012417 0.23697956 0.56800002
0.30004579 0.23536354 0.56800002
0.30102488 0.23457235 0.57000005
0.30200464 0.23377153 0.57200003
0.30192935 0.23214938 0.57200003
0.30185527 0.23052889 0.57200003
0.30178231 0.22891006 0.57200003
0.30223799 0.2276902 0.57300001
0.30427656 0.22764993 0.57700002
0.2995576 0.27363652 0.56600004
0.29882577 0.26207688 0.56600004
0.29872742 0.26043525 0.56600004
0.29915816 0.25925317 0.56700003
0.29906258 0.25761324 0.56700003
0.30002302 0.25687847 0.56900001
0.29940292 0.25478864 0.56800002
0.29931146 0.25315243 0.56800002
0.29860616 0.24944641 0.56700003
0.29904547 0.2482564 0.56800002
0.29948583 0.24706267 0.56900001
0.29992726 0.24586521 0.57000005
0.30089572 0.24509242 0.57200003
0.30133897 0.24388455 0.57300001
0.30178326 0.24267282 0.574
0.30065167 0.24019751 0.57200003
0.30057284 0.23856956 0.57200003
0.30102056 0.23735762 0.57300001
0.30094406 0.23573038 0.57300001
0.30139378 0.23451342 0.574
0.30236942 0.23369823 0.57600003
0.30282086 0.23247047 0.57700002
0.30274853 0.23083866 0.57700002
0.29851463 0.27567342 0.56700003
0.29893142 0.27449372 0.56800002
0.29987559 0.27379116 0.57000005
0.30082059 0.27307951 0.57200003
0.30018932 0.2709353 0.57100004
0.29778183 0.26408678 0.56700003
0.29873335 0.26336712 0.56900001
0.29811123 0.26125833 0.56800002
0.29854023 0.26007178 0.56900001
0.29844582 0.25842753 0.56900001
0.29992592 0.25813937 0.57200003
0.29878557 0.2555941 0.57000005
0.29869527 0.25395352 0.57000005
0.29860637 0.25231504 0.57000005
0.29904255 0.25111845 0.57100004
0.29947978 0.24991816 0.57200003
0.30044141 0.24914819 0.574
0.29983398 0.24707519 0.57300001
0.30027443 0.24586652 0.574
0.30019289 0.24422859 0.574
0.30115831 0.24343778 0.57600003
0.3005563 0.24137808 0.57500005
0.30152351 0.24057671 0.57700002
0.30196896 0.23935165 0.57800001
0.30189306 0.2377114 0.57800001
0.30286273 0.23688976 0.58000004
0.29903862 0.27918363 0.57100004
0.2984049 0.27702194 0.57000005
0.29881981 0.27583492 0.57100004
0.299236 0.2746447 0.57200003
0.29965344 0.27345121 0.57300001
0.29954928 0.27178013 0.57300001
0.29840159 0.26916879 0.57100004
0.29882336 0.26797703 0.57200003
0.29748619 0.26208228 0.57000005
0.29739171 0.26043433 0.57000005
0.29729864 0.25878865 0.57000005
0.29824984 0.2580474 0.57200003
0.29815927 0.25640032 0.57200003
0.29807016 0.25475541 0.57200003
0.29850331 0.25355503 0.57300001
0.29945835 0.25279069 0.57500005
0.30041409 0.25201687 0.57700002
0.30085006 0.25079975 0.57800001
0.30024639 0.24871676 0.57700002
0.30068466 0.24749778 0.57800001
0.30112398 0.24627507 0.57900006
0.30156431 0.24504852 0.58000004
0.30148575 0.24339846 0.58000004
0.30192813 0.24216701 0.58100003
0.29849985 0.28173351 0.57300001
0.29786855 0.27956218 0.57200003
0.29723927 0.27739936 0.57100004
0.29765272 0.27621087 0.57200003
0.29806742 0.27501914 0.57300001
0.29848334 0.27382413 0.574
0.29890051 0.27262589 0.57500005
0.29827952 0.27048182 0.574
0.29973838 0.27021936 0.57700002
0.29860121 0.26761478 0.57500005
0.2990236 0.26641172 0.57600003
0.29737124 0.2633667 0.57300001
0.29779655 0.26216823 0.574
0.29718566 0.26005858 0.57300001
0.29813203 0.2593098 0.57500005
0.29804248 0.2576555 0.57500005
0.29795429 0.25600332 0.57500005
0.2983855 0.25479558 0.57600003
0.29881775 0.25358415 0.57700002
0.30028653 0.25324228 0.58000004
0.30072057 0.25201774 0.58100003
0.3011556 0.2507894 0.58200002
0.30159163 0.24955735 0.583
0.30202872 0.24832152 0.58400005
0.30246672 0.24708182 0.58500004
0.30238882 0.24541877 0.58500004
0.29639691 0.28281224 0.57200003
0.29576856 0.28063998 0.57100004
0.29669559 0.27994198 0.57300001
0.29607075 0.27777809 0.57200003
0.29700014 0.27707079 0.574
0.29689592 0.27539486 0.574
0.29782742 0.27467522 0.57600003
0.29824287 0.27347252 0.57700002
0.29917625 0.27273753 0.57900006
0.3001104 0.27199337 0.58100003
0.29949635 0.26984429 0.58000004
0.29888406 0.26770338 0.57900006
0.29827362 0.26557055 0.57800001
0.2986967 0.26435897 0.57900006
0.29808941 0.26223645 0.57800001
0.29748386 0.26012188 0.57700002
0.2984263 0.25935912 0.57900006
0.29782364 0.25725171 0.57800001
0.29825291 0.25603658 0.57900006
0.29868323 0.25481778 0.58000004
0.3001442 0.25446817 0.583
0.29647502 0.28756884 0.57500005
0.2963624 0.28587529 0.57500005
0.29625148 0.2841846 0.57500005
0.29511213 0.28151405 0.57300001
0.29551974 0.28032312 0.574
0.29541394 0.27864355 0.574
0.29633874 0.27793166 0.57600003
0.29675007 0.27673104 0.57700002
0.29716259 0.27552718 0.57800001
0.2970624 0.27384624 0.57800001
0.29747754 0.27263868 0.57900006
0.29840741 0.27189568 0.58100003
0.2977978 0.26974827 0.58000004
0.29821655 0.26853335 0.58100003
0.2981233 0.26685569 0.58100003
0.29854444 0.26563668 0.58200002
0.29794109 0.26350713 0.58100003
0.2978521 0.26183614 0.58100003
0.29776448 0.26016736 0.58100003
0.29767823 0.25850067 0.58100003
0.29810551 0.25727808 0.58200002
0.29904592 0.25649107 0.58400005
0.30049899 0.25613093 0.58700001
0.29540011 0.28965381 0.57600003
0.29579994 0.28845605 0.57700002
0.29620108 0.28725532 0.57800001
0.29609129 0.28555748 0.57800001
0.29547107 0.2833713 0.57700002
0.29638854 0.28265828 0.57900006
0.29628348 0.28096569 0.57900006
0.29720306 0.28024042 0.58100003
0.29607812 0.27758837 0.57900006
0.29700011 0.27685657 0.58100003
0.29690099 0.27516845 0.58100003
0.2973142 0.27395347 0.58200002
0.29721788 0.27226734 0.58200002
0.29610202 0.26965374 0.58000004
0.29754007 0.26936418 0.583
0.29744798 0.26768219 0.583
0.29888746 0.26737124 0.58600003
0.29828787 0.2652317 0.58500004
0.29870942 0.26400113 0.58600003
0.2981129 0.26187173 0.58500004
0.29802749 0.2601949 0.58500004
0.29845265 0.25896206 0.58600003
0.29522771 0.29104903 0.57900006
0.29511607 0.28934425 0.57900006
0.29653457 0.28913268 0.58200002
0.29591638 0.28693092 0.58100003
0.29580936 0.2852287 0.58100003
0.29570395 0.28352922 0.58100003
0.2961089 0.28231746 0.58200002
0.29753232 0.28206682 0.58500004
0.29793936 0.28084278 0.58600003
0.2978394 0.27913916 0.58600003
0.2967248 0.27649117 0.58400005
0.29662818 0.27479827 0.58400005
0.29704082 0.27357548 0.58500004
0.29593182 0.270955 0.583
0.29736212 0.27065775 0.58600003
0.29676372 0.26850954 0.58500004
0.29819563 0.26819378 0.588
0.2965861 0.26514354 0.58500004
0.2985267 0.26526532 0.58900005
0.29793403 0.26312876 0.588
0.29886267 0.26233399 0.59000003
